581078.0 1103476.0 9220.0
581576.0 1104075.0 9178.0
581528.0 1104249.0 9205.0
580417.0 1103549.0 9140.0
580936.0 1106289.0 9050.0
584469.0 1102304.0 9106.0
583421.0 1105242.0 9192.0
583917.0 1103191.0 9170.0
583318.0 1104608.0 9209.0
583341.0 1103290.0 9141.0
583464.0 1102905.0 9207.0
583097.0 1103502.0 9087.0
583434.0 1102321.0 9070.0
581785.0 1107195.0 9117.0
580704.0 1106829.0 9150.0
580774.0 1106453.0 9164.0
580466.0 1106521.0 9117.0
581209.0 1103592.0 9122.0
580791.0 1103413.0 9222.0
580399.0 1104047.0 9126.0
580472.0 1103665.0 9182.0
580186.0 1103626.0 9113.0
580986.0 1106829.0 9229.0
580661.0 1106679.0 9220.0
580644.0 1106504.0 9134.0
581438.0 1106266.0 9214.0
583478.0 1105287.0 9189.0
580290.0 1103641.0 9216.0
583630.0 1104514.0 9185.0
581073.0 1103631.0 9220.0
580318.0 1103427.0 9175.0
580934.0 1103263.0 9235.0
583394.0 1103456.0 9129.0
583085.0 1103334.0 9046.0
583242.0 1103129.0 9101.0
583419.0 1102901.0 9200.0
583466.0 1102648.0 9174.0
580039.0 1104058.0 8884.0
580609.0 1106347.0 8925.0
580248.0 1104210.0 8922.0
580634.0 1105668.0 8906.0
580129.0 1103365.0 8987.0
580319.0 1103870.0 9006.0
580947.0 1106181.0 8864.0
581129.0 1106863.0 8962.0
581298.0 1107299.0 8876.0
581476.0 1104060.0 8990.0
582547.0 1105711.0 8928.0
582571.0 1105802.0 8993.0
583515.0 1105383.0 9036.0
582990.0 1102950.0 8987.0
583360.0 1104083.0 8948.0
583717.0 1105397.0 8951.0
583157.0 1102713.0 8929.0
584628.0 1105531.0 8955.0
584568.0 1102563.0 8997.0
584639.0 1102250.0 8922.0
584612.0 1102384.0 8920.0
583861.0 1101963.0 8873.0
583341.0 1102656.0 8940.0
584603.0 1104127.0 8906.0
583300.0 1103608.0 8972.0
584632.0 1105497.0 8974.0
583390.0 1105201.0 9026.0
581486.0 1104194.0 8980.0
580064.0 1103329.0 8968.0
580294.0 1103845.0 8933.0
580256.0 1104163.0 8961.0
580907.0 1105909.0 8864.0
580904.0 1106102.0 8920.0
580421.0 1105693.0 9014.0
580877.0 1106305.0 9010.0
580815.0 1106379.0 8995.0
580514.0 1106450.0 8867.0
584555.0 1102644.0 8967.0
583526.0 1105313.0 8882.0
583306.0 1104170.0 8839.0
583411.0 1103797.0 8991.0
583788.0 1102556.0 9029.0
583827.0 1102138.0 8853.0
582627.0 1105626.0 8904.0
580865.0 1107035.0 8920.0
581170.0 1106217.0 9029.0
580445.0 1106076.0 8871.0
580522.0 1105669.0 8893.0
580343.0 1105812.0 8878.0
580022.0 1104014.0 8913.0
580714.0 1107039.0 8989.0
581251.0 1107092.0 8980.0
581143.0 1106486.0 8983.0
580437.0 1106269.0 8908.0
580649.0 1106183.0 8916.0
580094.0 1104289.0 8853.0
584478.0 1105423.0 9015.0
581419.0 1103811.0 9004.0
584574.0 1104253.0 8839.0
583252.0 1103774.0 8964.0
583064.0 1102896.0 8891.0
583101.0 1102606.0 8997.0
583788.0 1102494.0 8877.0
580358.0 1106305.0 8692.0
580468.0 1106369.0 8762.0
581261.0 1107339.0 8774.0
581742.0 1105950.0 8641.0
582453.0 1105793.0 8764.0
582438.0 1102491.0 8661.0
582658.0 1102579.0 8655.0
583969.0 1102909.0 8771.0
583725.0 1101671.0 8671.0
584450.0 1104062.0 8767.0
583981.0 1101955.0 8830.0
584320.0 1102902.0 8771.0
584790.0 1102939.0 8655.0
585277.0 1103390.0 8763.0
585248.0 1102567.0 8658.0
586322.0 1103259.0 8684.0
585780.0 1102914.0 8747.0
585985.0 1103174.0 8654.0
585967.0 1103341.0 8679.0
585787.0 1103247.0 8644.0
585731.0 1103361.0 8655.0
585417.0 1103186.0 8665.0
585449.0 1103476.0 8789.0
585318.0 1103507.0 8815.0
585354.0 1103572.0 8712.0
584213.0 1102728.0 8667.0
583276.0 1104163.0 8790.0
583751.0 1105220.0 8775.0
583279.0 1104834.0 8725.0
582052.0 1103568.0 8684.0
581983.0 1103656.0 8814.0
583782.0 1105642.0 8736.0
580055.0 1103691.0 8782.0
581174.0 1104920.0 8780.0
579915.0 1103962.0 8745.0
580566.0 1106233.0 8799.0
581084.0 1106862.0 8797.0
581080.0 1107029.0 8814.0
585413.0 1103547.0 8703.0
585628.0 1102747.0 8734.0
585413.0 1102484.0 8791.0
584947.0 1103004.0 8667.0
584852.0 1102244.0 8640.0
583389.0 1105669.0 8701.0
584142.0 1102949.0 8755.0
584255.0 1102600.0 8737.0
582422.0 1105926.0 8644.0
583545.0 1102109.0 8812.0
582241.0 1105910.0 8684.0
581422.0 1106068.0 8683.0
582036.0 1103574.0 8702.0
581704.0 1103634.0 8727.0
581362.0 1103628.0 8746.0
582640.0 1105832.0 8797.0
581205.0 1104791.0 8662.0
579702.0 1104189.0 8779.0
579786.0 1104077.0 8674.0
583396.0 1104901.0 8747.0
579867.0 1103760.0 8746.0
584292.0 1104888.0 8705.0
582906.0 1104375.0 8676.0
583370.0 1104199.0 8792.0
582139.0 1103511.0 8715.0
585497.0 1103717.0 8810.0
585127.0 1103661.0 8669.0
585966.0 1103640.0 8708.0
585606.0 1103526.0 8709.0
585255.0 1103404.0 8654.0
586207.0 1103417.0 8691.0
585876.0 1103292.0 8650.0
584419.0 1102803.0 8663.0
584718.0 1102479.0 8809.0
584359.0 1102452.0 8710.0
583690.0 1102171.0 8831.0
585019.0 1102307.0 8701.0
581034.0 1107036.0 8520.0
581050.0 1104861.0 8447.0
581260.0 1106029.0 8619.0
582488.0 1102884.0 8461.0
583166.0 1104330.0 8574.0
583243.0 1104430.0 8623.0
583624.0 1105687.0 8558.0
584475.0 1102098.0 8507.0
584692.0 1102936.0 8621.0
584801.0 1103054.0 8605.0
586420.0 1102980.0 8598.0
586128.0 1102717.0 8498.0
585853.0 1102562.0 8515.0
585662.0 1102575.0 8614.0
585428.0 1102421.0 8561.0
583634.0 1101576.0 8456.0
584835.0 1103078.0 8617.0
584681.0 1103044.0 8557.0
584388.0 1103795.0 8522.0
584366.0 1103904.0 8583.0
582704.0 1102713.0 8472.0
582522.0 1102655.0 8499.0
582396.0 1102659.0 8516.0
582274.0 1103160.0 8612.0
583205.0 1104461.0 8572.0
584194.0 1105939.0 8600.0
583260.0 1104921.0 8545.0
581135.0 1102636.0 8465.0
583983.0 1105902.0 8601.0
584023.0 1106023.0 8503.0
583863.0 1105983.0 8478.0
584499.0 1106644.0 8443.0
584505.0 1106910.0 8458.0
581046.0 1104801.0 8467.0
581342.0 1105819.0 8454.0
586048.0 1103499.0 8615.0
586082.0 1103099.0 8453.0
585824.0 1103229.0 8626.0
585882.0 1102803.0 8466.0
585498.0 1103117.0 8635.0
584504.0 1105269.0 8532.0
584981.0 1103607.0 8524.0
585112.0 1103227.0 8577.0
584273.0 1105351.0 8622.0
583668.0 1106256.0 8521.0
584258.0 1104248.0 8585.0
584398.0 1103885.0 8569.0
584548.0 1103072.0 8487.0
583392.0 1106303.0 8489.0
583867.0 1104638.0 8520.0
584296.0 1103054.0 8514.0
584555.0 1102216.0 8579.0
583626.0 1104533.0 8482.0
583977.0 1103358.0 8528.0
583387.0 1104394.0 8602.0
583860.0 1101700.0 8590.0
581064.0 1107244.0 8544.0
582374.0 1102385.0 8571.0
581470.0 1104029.0 8448.0
581083.0 1103141.0 8474.0
580978.0 1102844.0 8457.0
580772.0 1106563.0 8454.0
581624.0 1105975.0 8447.0
584071.0 1104532.0 8554.0
584246.0 1104250.0 8580.0
581810.0 1103458.0 8609.0
584490.0 1103994.0 8628.0
582276.0 1103331.0 8477.0
582815.0 1103213.0 8544.0
584093.0 1103104.0 8571.0
582271.0 1102516.0 8467.0
585115.0 1103107.0 8582.0
585773.0 1102931.0 8608.0
585735.0 1102619.0 8531.0
585395.0 1102487.0 8576.0
584628.0 1102269.0 8560.0
583904.0 1101975.0 8610.0
580890.0 1103696.0 8419.0
581397.0 1103839.0 8355.0
582172.0 1102962.0 8417.0
582164.0 1102878.0 8376.0
582640.0 1104410.0 8265.0
582279.0 1102953.0 8372.0
583446.0 1106305.0 8304.0
583202.0 1104987.0 8421.0
583528.0 1106247.0 8338.0
582778.0 1102934.0 8304.0
583146.0 1104563.0 8374.0
583642.0 1106117.0 8261.0
583703.0 1106048.0 8288.0
584338.0 1106243.0 8391.0
584648.0 1103210.0 8341.0
586090.0 1102536.0 8406.0
584538.0 1103230.0 8294.0
584185.0 1103207.0 8286.0
582200.0 1102431.0 8332.0
582854.0 1103165.0 8407.0
582527.0 1102946.0 8432.0
582215.0 1102759.0 8428.0
584365.0 1105430.0 8364.0
582141.0 1103040.0 8266.0
582865.0 1104293.0 8426.0
584469.0 1106267.0 8314.0
583605.0 1105728.0 8246.0
583830.0 1106149.0 8352.0
583658.0 1106258.0 8302.0
583499.0 1106484.0 8242.0
580635.0 1106700.0 8357.0
586305.0 1103256.0 8376.0
585907.0 1102455.0 8312.0
584242.0 1107184.0 8368.0
585627.0 1102329.0 8407.0
584333.0 1105671.0 8270.0
583833.0 1106424.0 8292.0
583484.0 1106648.0 8264.0
583695.0 1105817.0 8240.0
583568.0 1105464.0 8352.0
583267.0 1104749.0 8366.0
582483.0 1104286.0 8240.0
582679.0 1102966.0 8334.0
582759.0 1102552.0 8296.0
582187.0 1102764.0 8325.0
581077.0 1105691.0 8423.0
581861.0 1102835.0 8397.0
581067.0 1103986.0 8251.0
583826.0 1106749.0 8398.0
583481.0 1106697.0 8288.0
581290.0 1105889.0 8405.0
583676.0 1106350.0 8428.0
583586.0 1106001.0 8428.0
582608.0 1103491.0 8363.0
581116.0 1103012.0 8272.0
580808.0 1102910.0 8387.0
584529.0 1103867.0 8259.0
582440.0 1103168.0 8334.0
582931.0 1103060.0 8405.0
582630.0 1102963.0 8332.0
582280.0 1102878.0 8277.0
584793.0 1103458.0 8266.0
582955.0 1102878.0 8270.0
586122.0 1103103.0 8432.0
586087.0 1102815.0 8276.0
585913.0 1102525.0 8328.0
585621.0 1102369.0 8338.0
581237.0 1103872.0 8199.0
581348.0 1102759.0 8087.0
583228.0 1106566.0 8113.0
583348.0 1106700.0 8185.0
583052.0 1104628.0 8146.0
583066.0 1103072.0 8170.0
584134.0 1106926.0 8066.0
584214.0 1106916.0 8141.0
584197.0 1106434.0 8197.0
584347.0 1106608.0 8149.0
584006.0 1103286.0 8113.0
584419.0 1103337.0 8135.0
584609.0 1103396.0 8172.0
582301.0 1103380.0 8141.0
581587.0 1102806.0 8148.0
583495.0 1105183.0 8135.0
582519.0 1104454.0 8165.0
584195.0 1106400.0 8185.0
583503.0 1105774.0 8153.0
584095.0 1106459.0 8166.0
584703.0 1107136.0 8154.0
583525.0 1105932.0 8206.0
584128.0 1106571.0 8139.0
584713.0 1107214.0 8104.0
584387.0 1106989.0 8152.0
583411.0 1106094.0 8154.0
581241.0 1103887.0 8112.0
584099.0 1107069.0 8072.0
581760.0 1105715.0 8206.0
580644.0 1106855.0 8201.0
586104.0 1102595.0 8048.0
584431.0 1107466.0 8096.0
584292.0 1106748.0 8146.0
584631.0 1105493.0 8064.0
584081.0 1106466.0 8174.0
583908.0 1106040.0 8198.0
584536.0 1103720.0 8225.0
584614.0 1103379.0 8149.0
584290.0 1103436.0 8071.0
583204.0 1106642.0 8167.0
584111.0 1103366.0 8115.0
582183.0 1103173.0 8041.0
581329.0 1105599.0 8141.0
582006.0 1103157.0 8067.0
584287.0 1107306.0 8215.0
584198.0 1106981.0 8158.0
584356.0 1106715.0 8097.0
584043.0 1106581.0 8172.0
583672.0 1105836.0 8171.0
582468.0 1104414.0 8186.0
580981.0 1104039.0 8070.0
582049.0 1103155.0 8043.0
581892.0 1102879.0 8109.0
584389.0 1103430.0 8080.0
582560.0 1102781.0 8208.0
585927.0 1102366.0 8183.0
585656.0 1102221.0 8159.0
580883.0 1104089.0 7943.0
581983.0 1103499.0 7896.0
582060.0 1103266.0 8023.0
583286.0 1105356.0 7858.0
585135.0 1103450.0 7880.0
584099.0 1103375.0 7997.0
583089.0 1102607.0 7955.0
584396.0 1104073.0 7866.0
581827.0 1103132.0 7919.0
581425.0 1102817.0 7940.0
582075.0 1103577.0 7987.0
583351.0 1105214.0 8016.0
582011.0 1103735.0 7893.0
583296.0 1105272.0 7874.0
581817.0 1103734.0 7874.0
584656.0 1107385.0 7964.0
580853.0 1104125.0 7968.0
581422.0 1105467.0 8001.0
581490.0 1105610.0 7858.0
581475.0 1105670.0 8014.0
586457.0 1103111.0 8024.0
586292.0 1102771.0 7944.0
584662.0 1107572.0 7968.0
584752.0 1107160.0 7906.0
584513.0 1107067.0 8021.0
585120.0 1103483.0 7891.0
584359.0 1104091.0 7842.0
583758.0 1102325.0 8032.0
582224.0 1104175.0 7959.0
581407.0 1106223.0 7984.0
581476.0 1105882.0 7993.0
582026.0 1103574.0 7891.0
581697.0 1103968.0 7893.0
581829.0 1103533.0 7848.0
584635.0 1107522.0 7983.0
584540.0 1107158.0 7970.0
580902.0 1105908.0 7977.0
584693.0 1106901.0 7920.0
581497.0 1105847.0 7956.0
581460.0 1104888.0 7880.0
586401.0 1103014.0 8036.0
586268.0 1102741.0 7978.0
580797.0 1103796.0 7710.0
581425.0 1105070.0 7835.0
581743.0 1103943.0 7803.0
581893.0 1103903.0 7792.0
584112.0 1103816.0 7668.0
584082.0 1103355.0 7667.0
584380.0 1103918.0 7680.0
583974.0 1103793.0 7642.0
584646.0 1105646.0 7788.0
583193.0 1104994.0 7836.0
581949.0 1103747.0 7815.0
581945.0 1103901.0 7757.0
581775.0 1103892.0 7820.0
581734.0 1104001.0 7748.0
584737.0 1107653.0 7798.0
581048.0 1103815.0 7823.0
580785.0 1104299.0 7706.0
581502.0 1105604.0 7725.0
581384.0 1105571.0 7665.0
582080.0 1106229.0 7711.0
581227.0 1105540.0 7731.0
584590.0 1103988.0 7716.0
584016.0 1103789.0 7645.0
583108.0 1105199.0 7712.0
582037.0 1106270.0 7827.0
581583.0 1106155.0 7661.0
581895.0 1103931.0 7691.0
581344.0 1105164.0 7771.0
581449.0 1104779.0 7814.0
579348.0 1106825.0 7808.0
580819.0 1104395.0 7686.0
582180.0 1104286.0 7652.0
581724.0 1103171.0 7804.0
586264.0 1102579.0 7836.0
579416.0 1106726.0 7619.0
580922.0 1103883.0 7563.0
581441.0 1105647.0 7470.0
581802.0 1104031.0 7521.0
583493.0 1102814.0 7476.0
583876.0 1103949.0 7552.0
583712.0 1103152.0 7589.0
583657.0 1102582.0 7461.0
584721.0 1104079.0 7603.0
585366.0 1104002.0 7463.0
585691.0 1103973.0 7489.0
585392.0 1103964.0 7518.0
584828.0 1104009.0 7604.0
584736.0 1104020.0 7577.0
584669.0 1104058.0 7583.0
583657.0 1103258.0 7505.0
583836.0 1103758.0 7576.0
583800.0 1103802.0 7538.0
583472.0 1104672.0 7559.0
581557.0 1103055.0 7601.0
583136.0 1105107.0 7440.0
582125.0 1105952.0 7555.0
581448.0 1105649.0 7592.0
579505.0 1106487.0 7519.0
585346.0 1103556.0 7589.0
584769.0 1104228.0 7526.0
583800.0 1103718.0 7550.0
582982.0 1105571.0 7541.0
583675.0 1102903.0 7530.0
582451.0 1105273.0 7443.0
581983.0 1105817.0 7463.0
581811.0 1105815.0 7529.0
581409.0 1105439.0 7528.0
580714.0 1104320.0 7573.0
581421.0 1105613.0 7518.0
581979.0 1104532.0 7553.0
581879.0 1104207.0 7509.0
585037.0 1104544.0 7555.0
583953.0 1103691.0 7633.0
585793.0 1104015.0 7475.0
583609.0 1102969.0 7532.0
582461.0 1105371.0 7369.0
582809.0 1106832.0 7321.0
582622.0 1105084.0 7247.0
583245.0 1105673.0 7281.0
583167.0 1105295.0 7358.0
583327.0 1105401.0 7238.0
583591.0 1104216.0 7318.0
583620.0 1103636.0 7421.0
585512.0 1104148.0 7370.0
583424.0 1103373.0 7313.0
583641.0 1103836.0 7428.0
583559.0 1104139.0 7304.0
583105.0 1104926.0 7423.0
583232.0 1105309.0 7353.0
583036.0 1105230.0 7334.0
583217.0 1105603.0 7276.0
582531.0 1105168.0 7306.0
583209.0 1105868.0 7240.0
582500.0 1105344.0 7262.0
581591.0 1104606.0 7410.0
581346.0 1105668.0 7432.0
579553.0 1105866.0 7415.0
579309.0 1106057.0 7288.0
579469.0 1106443.0 7351.0
585741.0 1103950.0 7400.0
585504.0 1103847.0 7417.0
584328.0 1104320.0 7241.0
583706.0 1104480.0 7241.0
583788.0 1104152.0 7299.0
583498.0 1103633.0 7353.0
583564.0 1103251.0 7424.0
582645.0 1105508.0 7385.0
582730.0 1105088.0 7302.0
581561.0 1105722.0 7281.0
581378.0 1103080.0 7374.0
579428.0 1105994.0 7314.0
579424.0 1106340.0 7242.0
583208.0 1106013.0 7267.0
581415.0 1105374.0 7335.0
584917.0 1105582.0 7415.0
582715.0 1104858.0 7419.0
581595.0 1104489.0 7428.0
583773.0 1103951.0 7395.0
585311.0 1104171.0 7359.0
583555.0 1103666.0 7355.0
585459.0 1104049.0 7309.0
583564.0 1103391.0 7394.0
580056.0 1106186.0 7064.0
582322.0 1105620.0 7183.0
583286.0 1105408.0 7110.0
583307.0 1103562.0 7231.0
583069.0 1104172.0 7087.0
583327.0 1106395.0 7134.0
582072.0 1105257.0 7173.0
582837.0 1106457.0 7043.0
582843.0 1106725.0 7103.0
582781.0 1106713.0 7130.0
582884.0 1106830.0 7058.0
582712.0 1106773.0 7108.0
581893.0 1106047.0 7153.0
582468.0 1106614.0 7038.0
581448.0 1105816.0 7077.0
581415.0 1105804.0 7114.0
579530.0 1105814.0 7149.0
580108.0 1106350.0 7060.0
580100.0 1106485.0 7055.0
579792.0 1106402.0 7192.0
579056.0 1106094.0 7205.0
579278.0 1106538.0 7079.0
583068.0 1106539.0 7074.0
582724.0 1106964.0 7083.0
583513.0 1104103.0 7214.0
583318.0 1104009.0 7171.0
582198.0 1105695.0 7093.0
581625.0 1106139.0 7172.0
581937.0 1104108.0 7183.0
579737.0 1106327.0 7183.0
579823.0 1105927.0 7103.0
579595.0 1106033.0 7179.0
579680.0 1105651.0 7099.0
579299.0 1106348.0 7236.0
579069.0 1106352.0 7192.0
578519.0 1106102.0 7049.0
582839.0 1107748.0 7083.0
579747.0 1106495.0 7044.0
579052.0 1106244.0 7158.0
579575.0 1106115.0 7211.0
582650.0 1106805.0 7143.0
580000.0 1105998.0 7109.0
579659.0 1105848.0 7175.0
582806.0 1106608.0 7039.0
582840.0 1104662.0 7132.0
583547.0 1104244.0 7135.0
583376.0 1103906.0 7201.0
584965.0 1104258.0 7102.0
578516.0 1105724.0 6918.0
578856.0 1105552.0 6891.0
578937.0 1105367.0 6844.0
579092.0 1105361.0 6863.0
579130.0 1105341.0 6897.0
579394.0 1105610.0 6966.0
579559.0 1105698.0 6987.0
580268.0 1105801.0 6900.0
580980.0 1105013.0 6884.0
581341.0 1106152.0 6861.0
581264.0 1105496.0 6945.0
581590.0 1106037.0 7004.0
581272.0 1103989.0 6867.0
582461.0 1106863.0 6955.0
582849.0 1107174.0 6844.0
581732.0 1102700.0 6944.0
583136.0 1106658.0 7013.0
583410.0 1106804.0 6938.0
582837.0 1103971.0 6952.0
582915.0 1104000.0 7036.0
582973.0 1104041.0 6979.0
583106.0 1104318.0 6838.0
582916.0 1103691.0 6914.0
583087.0 1104094.0 6985.0
584353.0 1104700.0 7037.0
582633.0 1103085.0 6915.0
583192.0 1103973.0 7030.0
581825.0 1102598.0 7004.0
583229.0 1104236.0 7012.0
581729.0 1102574.0 6896.0
583074.0 1104287.0 6958.0
582871.0 1104188.0 6983.0
582901.0 1104252.0 6868.0
581568.0 1103053.0 6920.0
581423.0 1104395.0 6862.0
583417.0 1106637.0 7002.0
583309.0 1106707.0 6978.0
583407.0 1107063.0 6997.0
580837.0 1104846.0 6846.0
582067.0 1106335.0 6997.0
582775.0 1107029.0 6945.0
581997.0 1106357.0 6932.0
581659.0 1106322.0 6862.0
580393.0 1105928.0 6919.0
580071.0 1105881.0 7004.0
580040.0 1105964.0 7032.0
578423.0 1105804.0 6889.0
578952.0 1106385.0 6982.0
578802.0 1106459.0 6856.0
584443.0 1104574.0 6915.0
582924.0 1106938.0 7010.0
581715.0 1106154.0 6850.0
581967.0 1103660.0 6935.0
582065.0 1103286.0 6953.0
581353.0 1104987.0 6967.0
581797.0 1103443.0 6998.0
581225.0 1104294.0 6928.0
581585.0 1103038.0 6960.0
580091.0 1105844.0 6948.0
579876.0 1105550.0 6984.0
579416.0 1105571.0 6986.0
579167.0 1105496.0 6891.0
578921.0 1105504.0 6921.0
578323.0 1106481.0 6846.0
578537.0 1105707.0 6893.0
579097.0 1106541.0 7003.0
578697.0 1106438.0 6969.0
578288.0 1106368.0 6864.0
578295.0 1106060.0 6921.0
582963.0 1107012.0 6991.0
579253.0 1105748.0 7018.0
578865.0 1105657.0 6927.0
583169.0 1106721.0 7032.0
580313.0 1105845.0 6865.0
579966.0 1105689.0 6956.0
579613.0 1105554.0 6925.0
579249.0 1105466.0 6873.0
582008.0 1106037.0 6970.0
583739.0 1104637.0 6997.0
582793.0 1103602.0 6896.0
581786.0 1103222.0 6955.0
578699.0 1106730.0 6640.0
578986.0 1106806.0 6648.0
580544.0 1105602.0 6709.0
580827.0 1104682.0 6732.0
581019.0 1104076.0 6749.0
581322.0 1104710.0 6645.0
582217.0 1106412.0 6650.0
581677.0 1102328.0 6649.0
581855.0 1102264.0 6748.0
582869.0 1104347.0 6673.0
581561.0 1102747.0 6775.0
581525.0 1102816.0 6761.0
581420.0 1103103.0 6733.0
582004.0 1104239.0 6699.0
581504.0 1103940.0 6718.0
581009.0 1104106.0 6809.0
582770.0 1105980.0 6707.0
581191.0 1104524.0 6766.0
581144.0 1104599.0 6760.0
581219.0 1104702.0 6688.0
582359.0 1105986.0 6716.0
581181.0 1104775.0 6713.0
580982.0 1104589.0 6748.0
580891.0 1104755.0 6831.0
580760.0 1105089.0 6652.0
582820.0 1107519.0 6677.0
580458.0 1105548.0 6666.0
578663.0 1106482.0 6809.0
578649.0 1106638.0 6652.0
585241.0 1105628.0 6670.0
583405.0 1106713.0 6657.0
583959.0 1105077.0 6710.0
582661.0 1107658.0 6694.0
582721.0 1107318.0 6756.0
583264.0 1104440.0 6799.0
582366.0 1106684.0 6779.0
582458.0 1106270.0 6666.0
583029.0 1104368.0 6786.0
582103.0 1106665.0 6763.0
582001.0 1104097.0 6837.0
582101.0 1103734.0 6799.0
581382.0 1104589.0 6786.0
581865.0 1102711.0 6738.0
580948.0 1105051.0 6709.0
581081.0 1104662.0 6760.0
581614.0 1102649.0 6699.0
580829.0 1104292.0 6718.0
578660.0 1107079.0 6651.0
578737.0 1106751.0 6698.0
578474.0 1106743.0 6716.0
578936.0 1106885.0 6647.0
578615.0 1106662.0 6791.0
578274.0 1106544.0 6798.0
582276.0 1107459.0 6646.0
582700.0 1107343.0 6731.0
582199.0 1106815.0 6782.0
582392.0 1106601.0 6754.0
580578.0 1105667.0 6675.0
579862.0 1105406.0 6746.0
581720.0 1105432.0 6722.0
585582.0 1106061.0 6774.0
581160.0 1104570.0 6780.0
580983.0 1104252.0 6742.0
584622.0 1104712.0 6751.0
584215.0 1104710.0 6675.0
583098.0 1104308.0 6789.0
582098.0 1103911.0 6785.0
581715.0 1102957.0 6817.0
581305.0 1102897.0 6674.0
581687.0 1102691.0 6679.0
578842.0 1106764.0 6620.0
579838.0 1105431.0 6540.0
580129.0 1105280.0 6596.0
580379.0 1105008.0 6455.0
580589.0 1105241.0 6562.0
580783.0 1105367.0 6554.0
580598.0 1104265.0 6480.0
580848.0 1105392.0 6556.0
580893.0 1103868.0 6481.0
581528.0 1104831.0 6468.0
582656.0 1107789.0 6458.0
581446.0 1102103.0 6497.0
581589.0 1102225.0 6540.0
581650.0 1102128.0 6469.0
583180.0 1105524.0 6568.0
584356.0 1105494.0 6486.0
584363.0 1105184.0 6549.0
584561.0 1105156.0 6584.0
585753.0 1105679.0 6446.0
585549.0 1105754.0 6562.0
584375.0 1104685.0 6555.0
584991.0 1105349.0 6550.0
584451.0 1104994.0 6632.0
584767.0 1105440.0 6516.0
584384.0 1105144.0 6575.0
581620.0 1102128.0 6527.0
584543.0 1105427.0 6559.0
584576.0 1105563.0 6485.0
581464.0 1102258.0 6542.0
584410.0 1105513.0 6533.0
581404.0 1102815.0 6596.0
582234.0 1104219.0 6629.0
582537.0 1105965.0 6489.0
580709.0 1104092.0 6464.0
580479.0 1104455.0 6564.0
581093.0 1105062.0 6488.0
580446.0 1104513.0 6523.0
582732.0 1107246.0 6626.0
580549.0 1105339.0 6583.0
582770.0 1107712.0 6563.0
578718.0 1106772.0 6549.0
585478.0 1105687.0 6527.0
585310.0 1105288.0 6637.0
585013.0 1105458.0 6593.0
585072.0 1105042.0 6441.0
584769.0 1105343.0 6560.0
584453.0 1105329.0 6551.0
584537.0 1104953.0 6557.0
584138.0 1105313.0 6587.0
584188.0 1104955.0 6561.0
583931.0 1104714.0 6543.0
582924.0 1107459.0 6614.0
582819.0 1105707.0 6532.0
582532.0 1105864.0 6561.0
581800.0 1105375.0 6566.0
581596.0 1105306.0 6562.0
581361.0 1105285.0 6484.0
581481.0 1104881.0 6560.0
582009.0 1102799.0 6451.0
581070.0 1105337.0 6507.0
580773.0 1105447.0 6528.0
580414.0 1105532.0 6597.0
580496.0 1105115.0 6535.0
580830.0 1103884.0 6481.0
581094.0 1103042.0 6627.0
578818.0 1107084.0 6516.0
582305.0 1106273.0 6614.0
580223.0 1105538.0 6629.0
580948.0 1105523.0 6538.0
580591.0 1105431.0 6498.0
581315.0 1105374.0 6455.0
580976.0 1105289.0 6519.0
580597.0 1105145.0 6540.0
581342.0 1105035.0 6591.0
585915.0 1106229.0 6531.0
580458.0 1104395.0 6629.0
585635.0 1105818.0 6480.0
585292.0 1105664.0 6622.0
584581.0 1105466.0 6543.0
585393.0 1105429.0 6478.0
585040.0 1105295.0 6537.0
584692.0 1105175.0 6544.0
584358.0 1105042.0 6575.0
584003.0 1104985.0 6491.0
582976.0 1104585.0 6506.0
584952.0 1104974.0 6452.0
580945.0 1102860.0 6479.0
580022.0 1104778.0 6275.0
581049.0 1103141.0 6374.0
581709.0 1105206.0 6315.0
581752.0 1104688.0 6395.0
583877.0 1104843.0 6408.0
586004.0 1106135.0 6288.0
585563.0 1105253.0 6291.0
584098.0 1104553.0 6333.0
583990.0 1104754.0 6432.0
583903.0 1104765.0 6435.0
583829.0 1104816.0 6394.0
581338.0 1102097.0 6261.0
583556.0 1104683.0 6389.0
583687.0 1104888.0 6358.0
583463.0 1104823.0 6295.0
584187.0 1105767.0 6391.0
582711.0 1104331.0 6286.0
583003.0 1105624.0 6410.0
582950.0 1105714.0 6243.0
580779.0 1103837.0 6369.0
580684.0 1103966.0 6353.0
581711.0 1105229.0 6322.0
580609.0 1104071.0 6339.0
581524.0 1105254.0 6410.0
581652.0 1105399.0 6352.0
580097.0 1104710.0 6313.0
579970.0 1105161.0 6422.0
582873.0 1108263.0 6246.0
579332.0 1107049.0 6347.0
579259.0 1107103.0 6411.0
579045.0 1107201.0 6423.0
585742.0 1105805.0 6371.0
585782.0 1105462.0 6273.0
585524.0 1105252.0 6323.0
584820.0 1104914.0 6434.0
584219.0 1105705.0 6245.0
582722.0 1107831.0 6392.0
583570.0 1104694.0 6311.0
583666.0 1104375.0 6282.0
584189.0 1102458.0 6248.0
582853.0 1105274.0 6269.0
582590.0 1104142.0 6239.0
582387.0 1103943.0 6298.0
581935.0 1104615.0 6349.0
581661.0 1104874.0 6389.0
581101.0 1102560.0 6349.0
579358.0 1106709.0 6425.0
578945.0 1107279.0 6327.0
578823.0 1107186.0 6410.0
582762.0 1108069.0 6252.0
580198.0 1105286.0 6407.0
585967.0 1105968.0 6312.0
585742.0 1105602.0 6313.0
585636.0 1105266.0 6262.0
583824.0 1104629.0 6322.0
582505.0 1104032.0 6244.0
581623.0 1102435.0 6353.0
581285.0 1102356.0 6331.0
580574.0 1103841.0 6089.0
581888.0 1106805.0 6200.0
581075.0 1102458.0 6093.0
581125.0 1102311.0 6075.0
581205.0 1102248.0 6141.0
582658.0 1108120.0 6207.0
583033.0 1104954.0 6061.0
584660.0 1103120.0 6141.0
584721.0 1102618.0 6166.0
585616.0 1105337.0 6174.0
586178.0 1105643.0 6092.0
584740.0 1102695.0 6127.0
584604.0 1102917.0 6117.0
584537.0 1102944.0 6093.0
585990.0 1105497.0 6220.0
585740.0 1105993.0 6151.0
581217.0 1102267.0 6191.0
583339.0 1104965.0 6231.0
582922.0 1104728.0 6140.0
584086.0 1105971.0 6068.0
582269.0 1104449.0 6093.0
580652.0 1103731.0 6143.0
581929.0 1105207.0 6140.0
581944.0 1105246.0 6116.0
580506.0 1103991.0 6141.0
581877.0 1106845.0 6162.0
582553.0 1108023.0 6198.0
578446.0 1106595.0 6216.0
586029.0 1105549.0 6050.0
582427.0 1104536.0 6114.0
582099.0 1104734.0 6185.0
582246.0 1104359.0 6227.0
581812.0 1104990.0 6235.0
582195.0 1103372.0 6089.0
582054.0 1104769.0 6183.0
583281.0 1104846.0 6077.0
582398.0 1104261.0 6174.0
580873.0 1103793.0 6046.0
582378.0 1103720.0 6167.0
580923.0 1102615.0 6226.0
583702.0 1102407.0 6061.0
580551.0 1103672.0 5962.0
580936.0 1102563.0 5962.0
581099.0 1102242.0 6013.0
582123.0 1103354.0 5876.0
582936.0 1105262.0 6031.0
583397.0 1103979.0 5850.0
584291.0 1103015.0 5988.0
584387.0 1102338.0 5847.0
585024.0 1102172.0 5871.0
584672.0 1102202.0 5868.0
584622.0 1102290.0 5907.0
584506.0 1102528.0 6000.0
584350.0 1102382.0 5862.0
584383.0 1102847.0 6004.0
584267.0 1102827.0 5995.0
586256.0 1105558.0 6011.0
584339.0 1104021.0 5921.0
581219.0 1101978.0 5849.0
581051.0 1102303.0 6013.0
580876.0 1102580.0 5916.0
582867.0 1104836.0 5947.0
582899.0 1105050.0 5959.0
582064.0 1105117.0 5932.0
580545.0 1103709.0 5995.0
583142.0 1106567.0 5896.0
580410.0 1103885.0 5857.0
581785.0 1106944.0 5920.0
581672.0 1107029.0 5910.0
586273.0 1105567.0 5881.0
584668.0 1107709.0 5918.0
584521.0 1104157.0 5853.0
584774.0 1103353.0 5925.0
584551.0 1102853.0 5944.0
584663.0 1102450.0 5870.0
582730.0 1108352.0 5960.0
584171.0 1102052.0 5936.0
583014.0 1105163.0 5838.0
581711.0 1106991.0 5968.0
581941.0 1105147.0 6031.0
582217.0 1102982.0 5929.0
581483.0 1102187.0 6027.0
582787.0 1108386.0 5956.0
583049.0 1108232.0 6034.0
581725.0 1106998.0 5935.0
586318.0 1105603.0 5838.0
584928.0 1104380.0 5878.0
584550.0 1104261.0 5865.0
583817.0 1103988.0 6021.0
582334.0 1103496.0 6020.0
585069.0 1103403.0 5873.0
584732.0 1103247.0 5954.0
584360.0 1103152.0 5889.0
582131.0 1102453.0 5946.0
581804.0 1102322.0 5853.0
581400.0 1102176.0 5911.0
584954.0 1103109.0 5899.0
584625.0 1102957.0 5979.0
584277.0 1102871.0 5864.0
582096.0 1102225.0 5896.0
584708.0 1102793.0 5949.0
584408.0 1102655.0 6029.0
584909.0 1102626.0 5967.0
584543.0 1102529.0 5893.0
584884.0 1102373.0 5838.0
580817.0 1102641.0 5819.0
583128.0 1106171.0 5645.0
584416.0 1106689.0 5675.0
583776.0 1103542.0 5815.0
584093.0 1102646.0 5748.0
584146.0 1102457.0 5753.0
584265.0 1102395.0 5812.0
585018.0 1101865.0 5676.0
585040.0 1101708.0 5667.0
585016.0 1101687.0 5659.0
584262.0 1101918.0 5691.0
584106.0 1102130.0 5709.0
583496.0 1102028.0 5671.0
584124.0 1102835.0 5800.0
583926.0 1102651.0 5678.0
582461.0 1102567.0 5680.0
584296.0 1106671.0 5731.0
583074.0 1105599.0 5710.0
582120.0 1104918.0 5694.0
582674.0 1105503.0 5691.0
583216.0 1106368.0 5673.0
583178.0 1106359.0 5687.0
580302.0 1104144.0 5814.0
581728.0 1107236.0 5793.0
584841.0 1108150.0 5682.0
584815.0 1104057.0 5786.0
584887.0 1103644.0 5696.0
585262.0 1102417.0 5763.0
583705.0 1106831.0 5699.0
585037.0 1102186.0 5762.0
585115.0 1101818.0 5713.0
583451.0 1106551.0 5751.0
584138.0 1104041.0 5790.0
584719.0 1102039.0 5696.0
583200.0 1106240.0 5666.0
583952.0 1103769.0 5812.0
584254.0 1102547.0 5814.0
584380.0 1102153.0 5754.0
584450.0 1101779.0 5660.0
583051.0 1105790.0 5697.0
583985.0 1102719.0 5813.0
583678.0 1102753.0 5789.0
582181.0 1104964.0 5667.0
581465.0 1101764.0 5690.0
581043.0 1102142.0 5812.0
584769.0 1107749.0 5757.0
583796.0 1106795.0 5681.0
583447.0 1106643.0 5776.0
583367.0 1106377.0 5684.0
582985.0 1104644.0 5732.0
580486.0 1103750.0 5794.0
582317.0 1102877.0 5779.0
581004.0 1102124.0 5705.0
583905.0 1102847.0 5675.0
581416.0 1102010.0 5785.0
583976.0 1102651.0 5744.0
581549.0 1101875.0 5681.0
584165.0 1102457.0 5761.0
585225.0 1102510.0 5759.0
584535.0 1102275.0 5797.0
584210.0 1102187.0 5776.0
585273.0 1102283.0 5665.0
584950.0 1102148.0 5739.0
584589.0 1102044.0 5694.0
582555.0 1104560.0 5596.0
582073.0 1102205.0 5598.0
582847.0 1104979.0 5520.0
582312.0 1102173.0 5546.0
583410.0 1106711.0 5602.0
583333.0 1103827.0 5478.0
583398.0 1103900.0 5601.0
584119.0 1106373.0 5534.0
584263.0 1106464.0 5573.0
583632.0 1103564.0 5523.0
584842.0 1107706.0 5531.0
583504.0 1102237.0 5618.0
583743.0 1102651.0 5499.0
583748.0 1102285.0 5523.0
585101.0 1107419.0 5493.0
583935.0 1102839.0 5634.0
585009.0 1106675.0 5536.0
583985.0 1101277.0 5467.0
585177.0 1101591.0 5637.0
585377.0 1101797.0 5565.0
585464.0 1101820.0 5523.0
585342.0 1101272.0 5608.0
585391.0 1101249.0 5502.0
584886.0 1101636.0 5603.0
584672.0 1101816.0 5637.0
584174.0 1101445.0 5530.0
583995.0 1101416.0 5553.0
584012.0 1101741.0 5598.0
583788.0 1102600.0 5565.0
583883.0 1102963.0 5628.0
583572.0 1102729.0 5631.0
583742.0 1103134.0 5519.0
582416.0 1102145.0 5513.0
583600.0 1103371.0 5445.0
582249.0 1102110.0 5531.0
583604.0 1103565.0 5510.0
582267.0 1102196.0 5584.0
584811.0 1105984.0 5634.0
580831.0 1102075.0 5535.0
584778.0 1106472.0 5592.0
585013.0 1106939.0 5478.0
585160.0 1107755.0 5482.0
583062.0 1105705.0 5466.0
583704.0 1106339.0 5455.0
583240.0 1106092.0 5553.0
583445.0 1106525.0 5582.0
582663.0 1105712.0 5598.0
582662.0 1105734.0 5633.0
583764.0 1106930.0 5515.0
582649.0 1105730.0 5557.0
582595.0 1105753.0 5615.0
583501.0 1106808.0 5466.0
585089.0 1108205.0 5575.0
584908.0 1107755.0 5622.0
584807.0 1106799.0 5630.0
584380.0 1107022.0 5438.0
584643.0 1106299.0 5531.0
584173.0 1107006.0 5491.0
584284.0 1106601.0 5470.0
584454.0 1106184.0 5609.0
585446.0 1102528.0 5496.0
583950.0 1106938.0 5600.0
585310.0 1101944.0 5471.0
584736.0 1101630.0 5438.0
583976.0 1103335.0 5633.0
584058.0 1102939.0 5634.0
583739.0 1103088.0 5539.0
584159.0 1101602.0 5540.0
584236.0 1101235.0 5460.0
583691.0 1102355.0 5535.0
583907.0 1101576.0 5583.0
582771.0 1102522.0 5569.0
582475.0 1102604.0 5563.0
582304.0 1102204.0 5588.0
582131.0 1101910.0 5483.0
585018.0 1108208.0 5592.0
585078.0 1107946.0 5498.0
584967.0 1107571.0 5542.0
584311.0 1107349.0 5533.0
584177.0 1106927.0 5615.0
584442.0 1106457.0 5578.0
583393.0 1106134.0 5452.0
584697.0 1106256.0 5472.0
583636.0 1103451.0 5455.0
583875.0 1103193.0 5510.0
582506.0 1102686.0 5581.0
582471.0 1102433.0 5552.0
583568.0 1102652.0 5462.0
582545.0 1102276.0 5485.0
582246.0 1102133.0 5543.0
583717.0 1102448.0 5474.0
582276.0 1101965.0 5467.0
584183.0 1101986.0 5476.0
583865.0 1101867.0 5550.0
585248.0 1102006.0 5547.0
584863.0 1101872.0 5587.0
584500.0 1101766.0 5557.0
584145.0 1101652.0 5519.0
585425.0 1101865.0 5460.0
584366.0 1101504.0 5464.0
584015.0 1101380.0 5491.0
582824.0 1105049.0 5378.0
582459.0 1101608.0 5296.0
583696.0 1106505.0 5423.0
583974.0 1106660.0 5315.0
584150.0 1106867.0 5406.0
584283.0 1107097.0 5403.0
583494.0 1103532.0 5347.0
584363.0 1106878.0 5347.0
583356.0 1102663.0 5331.0
584914.0 1108142.0 5330.0
583552.0 1102619.0 5420.0
584892.0 1107251.0 5401.0
585042.0 1107392.0 5414.0
585722.0 1107576.0 5271.0
585794.0 1107739.0 5240.0
584494.0 1101316.0 5350.0
584810.0 1101154.0 5238.0
584870.0 1100744.0 5257.0
585441.0 1100849.0 5238.0
585494.0 1100808.0 5275.0
585447.0 1100779.0 5251.0
585452.0 1100979.0 5328.0
585152.0 1101212.0 5366.0
585666.0 1101957.0 5417.0
584882.0 1101096.0 5239.0
585599.0 1101914.0 5359.0
584380.0 1101134.0 5312.0
584151.0 1101041.0 5307.0
583834.0 1101842.0 5355.0
583696.0 1102450.0 5258.0
582491.0 1101542.0 5275.0
583523.0 1103516.0 5397.0
583475.0 1103688.0 5373.0
583300.0 1103807.0 5387.0
583249.0 1103865.0 5354.0
585976.0 1106968.0 5408.0
583121.0 1103791.0 5270.0
583102.0 1104018.0 5337.0
585847.0 1107082.0 5326.0
583013.0 1104084.0 5289.0
585979.0 1107397.0 5249.0
585763.0 1107647.0 5251.0
585404.0 1107508.0 5331.0
584942.0 1107239.0 5418.0
583848.0 1106280.0 5415.0
584535.0 1106996.0 5358.0
584332.0 1106986.0 5370.0
583875.0 1106649.0 5287.0
584410.0 1107288.0 5355.0
584983.0 1107927.0 5365.0
584888.0 1107955.0 5334.0
583867.0 1106940.0 5408.0
584965.0 1108119.0 5275.0
583963.0 1107147.0 5437.0
583763.0 1106994.0 5425.0
582554.0 1105881.0 5366.0
585910.0 1107127.0 5254.0
585635.0 1107128.0 5300.0
585228.0 1107412.0 5296.0
584950.0 1107339.0 5424.0
585046.0 1106911.0 5380.0
585131.0 1106512.0 5295.0
585344.0 1105740.0 5256.0
584618.0 1107198.0 5391.0
584869.0 1106380.0 5415.0
584937.0 1105972.0 5269.0
584467.0 1106651.0 5414.0
585492.0 1102111.0 5327.0
585550.0 1101733.0 5239.0
583754.0 1107293.0 5311.0
583974.0 1106478.0 5357.0
585360.0 1101578.0 5369.0
583712.0 1106386.0 5386.0
583452.0 1106068.0 5385.0
584775.0 1101208.0 5249.0
584910.0 1100813.0 5273.0
583218.0 1105806.0 5400.0
584471.0 1101307.0 5338.0
583055.0 1105380.0 5377.0
583538.0 1103447.0 5411.0
583086.0 1103932.0 5330.0
583319.0 1103568.0 5412.0
582883.0 1103921.0 5423.0
582317.0 1104972.0 5362.0
585216.0 1107426.0 5288.0
584878.0 1107252.0 5392.0
584512.0 1107147.0 5368.0
585471.0 1107244.0 5267.0
585128.0 1107072.0 5359.0
584788.0 1106936.0 5413.0
584438.0 1106833.0 5436.0
584076.0 1106740.0 5282.0
585834.0 1107008.0 5299.0
584046.0 1106415.0 5345.0
583731.0 1106287.0 5306.0
585057.0 1106430.0 5317.0
583581.0 1105970.0 5276.0
583255.0 1105805.0 5377.0
582983.0 1103987.0 5265.0
582677.0 1103880.0 5322.0
583320.0 1103739.0 5352.0
583549.0 1103082.0 5437.0
583175.0 1102996.0 5361.0
583512.0 1102834.0 5437.0
582885.0 1102430.0 5338.0
583363.0 1102354.0 5390.0
582620.0 1102107.0 5393.0
582669.0 1101914.0 5242.0
582345.0 1101756.0 5245.0
585585.0 1102230.0 5257.0
584729.0 1101616.0 5418.0
585354.0 1101604.0 5300.0
584995.0 1101501.0 5271.0
584306.0 1101245.0 5365.0
585471.0 1101373.0 5286.0
584402.0 1101038.0 5239.0
582959.0 1105667.0 5212.0
583011.0 1105466.0 5129.0
584713.0 1107667.0 5155.0
585703.0 1107858.0 5173.0
585907.0 1107661.0 5200.0
584942.0 1101239.0 5201.0
584895.0 1100675.0 5201.0
585106.0 1101170.0 5215.0
584553.0 1100799.0 5176.0
584417.0 1100795.0 5165.0
586125.0 1107120.0 5219.0
586088.0 1107175.0 5235.0
585988.0 1107646.0 5220.0
586117.0 1107742.0 5090.0
585944.0 1107739.0 5116.0
585787.0 1107523.0 5202.0
585468.0 1107530.0 5174.0
585119.0 1107765.0 5211.0
585682.0 1102035.0 5108.0
584025.0 1106026.0 5213.0
585532.0 1100726.0 5103.0
583755.0 1106015.0 5218.0
585026.0 1101316.0 5112.0
585191.0 1100998.0 5229.0
583461.0 1105615.0 5076.0
584521.0 1100847.0 5138.0
582906.0 1104302.0 5131.0
582738.0 1104354.0 5205.0
585637.0 1107870.0 5230.0
585934.0 1107690.0 5131.0
585565.0 1107575.0 5178.0
585821.0 1107348.0 5228.0
583337.0 1105583.0 5133.0
582915.0 1104311.0 5101.0
582644.0 1103661.0 5048.0
583199.0 1102598.0 5223.0
585656.0 1101778.0 5113.0
584676.0 1101391.0 5214.0
584749.0 1101162.0 5206.0
585438.0 1101076.0 5144.0
585104.0 1100969.0 5151.0
584762.0 1100864.0 5147.0
585664.0 1100804.0 5110.0
585308.0 1100720.0 5058.0
582622.0 1104677.0 4994.0
584753.0 1107937.0 4860.0
586426.0 1108178.0 4903.0
585677.0 1110110.0 4903.0
586206.0 1107996.0 4935.0
586295.0 1107631.0 4952.0
585944.0 1108113.0 4844.0
585310.0 1107908.0 4954.0
585131.0 1106074.0 4898.0
585361.0 1101090.0 5015.0
583733.0 1105581.0 4860.0
583190.0 1105360.0 4996.0
585313.0 1107891.0 5015.0
586283.0 1107883.0 4938.0
583158.0 1105277.0 4931.0
585785.0 1102112.0 5032.0
585093.0 1101311.0 5030.0
584421.0 1100777.0 5031.0
586259.0 1110567.0 4704.0
586252.0 1110257.0 4698.0
587612.0 1108004.0 4679.0
587643.0 1107913.0 4670.0
587883.0 1107945.0 4747.0
587512.0 1108180.0 4677.0
586599.0 1108296.0 4660.0
585779.0 1108066.0 4678.0
582927.0 1105462.0 4779.0
586529.0 1110339.0 4659.0
586280.0 1110257.0 4782.0
587851.0 1107869.0 4759.0
586412.0 1110451.0 4655.0
586092.0 1110647.0 4745.0
586144.0 1110297.0 4705.0
585828.0 1110501.0 4788.0
586372.0 1107225.0 4795.0
585682.0 1108127.0 4731.0
586393.0 1110589.0 4727.0
586081.0 1110461.0 4819.0
585714.0 1110416.0 4685.0
586479.0 1110402.0 4696.0
586164.0 1110303.0 4709.0
586162.0 1110093.0 4644.0
585961.0 1108242.0 4643.0
586491.0 1107749.0 4738.0
586502.0 1107473.0 4642.0
586477.0 1107124.0 4699.0
585193.0 1106000.0 4831.0
582863.0 1105119.0 4621.0
586096.0 1110317.0 4595.0
585879.0 1108171.0 4616.0
586586.0 1108596.0 4487.0
587073.0 1107958.0 4444.0
587336.0 1108375.0 4517.0
587337.0 1108043.0 4558.0
587439.0 1108147.0 4585.0
587185.0 1107500.0 4487.0
587383.0 1107822.0 4516.0
586974.0 1107529.0 4481.0
586919.0 1107610.0 4505.0
586914.0 1107658.0 4453.0
587521.0 1108330.0 4491.0
587437.0 1108317.0 4483.0
586789.0 1107904.0 4458.0
586768.0 1108214.0 4622.0
586825.0 1108650.0 4442.0
586312.0 1108348.0 4582.0
582758.0 1104782.0 4481.0
585815.0 1108374.0 4442.0
584705.0 1107913.0 4635.0
586510.0 1110145.0 4612.0
586076.0 1110276.0 4596.0
587443.0 1108011.0 4603.0
586944.0 1108394.0 4532.0
586212.0 1109894.0 4524.0
586548.0 1108575.0 4524.0
586677.0 1108188.0 4555.0
586847.0 1107411.0 4499.0
586186.0 1108564.0 4486.0
586566.0 1107399.0 4613.0
585811.0 1108749.0 4443.0
582870.0 1104912.0 4538.0
582906.0 1104559.0 4550.0
586247.0 1109938.0 4466.0
586639.0 1108428.0 4617.0
586627.0 1108117.0 4626.0
586811.0 1107649.0 4450.0
586273.0 1109675.0 4342.0
586339.0 1108682.0 4412.0
586627.0 1109949.0 4427.0
587076.0 1109475.0 4248.0
586806.0 1107766.0 4297.0
586912.0 1107695.0 4416.0
587505.0 1109066.0 4242.0
587019.0 1107314.0 4378.0
587412.0 1108589.0 4323.0
588177.0 1109508.0 4325.0
588451.0 1108515.0 4282.0
587965.0 1106600.0 4282.0
588585.0 1108484.0 4254.0
587500.0 1107396.0 4246.0
586904.0 1106907.0 4240.0
587479.0 1107536.0 4335.0
586882.0 1107580.0 4356.0
587498.0 1108463.0 4412.0
587435.0 1108560.0 4351.0
587433.0 1108793.0 4334.0
587410.0 1108964.0 4243.0
587454.0 1109311.0 4348.0
585831.0 1108489.0 4310.0
585955.0 1108613.0 4265.0
585806.0 1108510.0 4291.0
586604.0 1109729.0 4345.0
586769.0 1110064.0 4318.0
586324.0 1109685.0 4339.0
587437.0 1108648.0 4308.0
587123.0 1108749.0 4288.0
587248.0 1108384.0 4339.0
586423.0 1110026.0 4344.0
586770.0 1108804.0 4316.0
587030.0 1107980.0 4406.0
587142.0 1107617.0 4417.0
586744.0 1107744.0 4374.0
587048.0 1106610.0 4351.0
585709.0 1110054.0 4290.0
586100.0 1108897.0 4420.0
585888.0 1108409.0 4408.0
585628.0 1108504.0 4280.0
585882.0 1109893.0 4276.0
586565.0 1109820.0 4305.0
586236.0 1109756.0 4254.0
586690.0 1109620.0 4283.0
587032.0 1109313.0 4423.0
586407.0 1108794.0 4341.0
586042.0 1108717.0 4349.0
586978.0 1108636.0 4381.0
587320.0 1108412.0 4387.0
586980.0 1108335.0 4401.0
587530.0 1108214.0 4372.0
587186.0 1108110.0 4396.0
586849.0 1108005.0 4342.0
587503.0 1107911.0 4358.0
587138.0 1107770.0 4408.0
587151.0 1107471.0 4432.0
585253.0 1110107.0 4114.0
585526.0 1110109.0 4099.0
585545.0 1109820.0 4042.0
585606.0 1110062.0 4100.0
585613.0 1109975.0 4078.0
585681.0 1109986.0 4139.0
586479.0 1109481.0 4220.0
586755.0 1109257.0 4048.0
587085.0 1109801.0 4107.0
586698.0 1107872.0 4180.0
587335.0 1109449.0 4078.0
587336.0 1108939.0 4080.0
587125.0 1107242.0 4091.0
587075.0 1106704.0 4050.0
587961.0 1109714.0 4052.0
587214.0 1106822.0 4159.0
587931.0 1109422.0 4174.0
587369.0 1106917.0 4129.0
587810.0 1108635.0 4185.0
587558.0 1107389.0 4232.0
588119.0 1109234.0 4070.0
588170.0 1109259.0 4058.0
587864.0 1107195.0 4172.0
587968.0 1106889.0 4137.0
588031.0 1107075.0 4104.0
587640.0 1106880.0 4167.0
587516.0 1106909.0 4147.0
587458.0 1107156.0 4206.0
587514.0 1107292.0 4213.0
586941.0 1106715.0 4090.0
586879.0 1107062.0 4154.0
588226.0 1108755.0 4188.0
588046.0 1109433.0 4157.0
586399.0 1108704.0 4147.0
587002.0 1109393.0 4232.0
586531.0 1108922.0 4038.0
587075.0 1109586.0 4134.0
586601.0 1109314.0 4147.0
587010.0 1109763.0 4166.0
585865.0 1108633.0 4200.0
586495.0 1109326.0 4079.0
585718.0 1109984.0 4180.0
585777.0 1110230.0 4079.0
585319.0 1109977.0 4107.0
585428.0 1110153.0 4088.0
585072.0 1109937.0 4069.0
585313.0 1110392.0 4145.0
585162.0 1110526.0 4180.0
585035.0 1110556.0 4228.0
585114.0 1110666.0 4201.0
584764.0 1110278.0 4041.0
588368.0 1108535.0 4183.0
587781.0 1109651.0 4099.0
588135.0 1108536.0 4141.0
587687.0 1109426.0 4147.0
587781.0 1109038.0 4095.0
587553.0 1109243.0 4219.0
587623.0 1108830.0 4114.0
587142.0 1109450.0 4065.0
587853.0 1106933.0 4103.0
586715.0 1109915.0 4116.0
586859.0 1109552.0 4174.0
587491.0 1107222.0 4069.0
587609.0 1106835.0 4106.0
587726.0 1106461.0 4180.0
586485.0 1109612.0 4145.0
587249.0 1106760.0 4038.0
585805.0 1110577.0 4057.0
586869.0 1106989.0 4097.0
585749.0 1109696.0 4084.0
585279.0 1110402.0 4196.0
585390.0 1110015.0 4165.0
585047.0 1110579.0 4164.0
585090.0 1110152.0 4106.0
585214.0 1109762.0 4057.0
584798.0 1110343.0 4057.0
584975.0 1109986.0 4116.0
585158.0 1109250.0 4076.0
585306.0 1106614.0 4119.0
585079.0 1106573.0 4186.0
585238.0 1110785.0 4171.0
585228.0 1110467.0 4178.0
585373.0 1110252.0 4171.0
585006.0 1110152.0 4086.0
586435.0 1110333.0 4152.0
585743.0 1110095.0 4225.0
585364.0 1110012.0 4109.0
585013.0 1109918.0 4045.0
585471.0 1109818.0 4088.0
585844.0 1109684.0 4063.0
587008.0 1109725.0 4202.0
587723.0 1109608.0 4153.0
588068.0 1109448.0 4060.0
587751.0 1109301.0 4175.0
587423.0 1109199.0 4150.0
586742.0 1108997.0 4121.0
585658.0 1108649.0 4217.0
587621.0 1108932.0 4166.0
587296.0 1108885.0 4114.0
588343.0 1108835.0 4084.0
588007.0 1108764.0 4059.0
588546.0 1108681.0 4099.0
587878.0 1107108.0 4063.0
587555.0 1107050.0 4069.0
587928.0 1106765.0 4146.0
587597.0 1106703.0 4116.0
587217.0 1106634.0 4041.0
585373.0 1109660.0 3975.0
584771.0 1106952.0 3984.0
585823.0 1109532.0 3854.0
586247.0 1110731.0 3907.0
586026.0 1109505.0 3889.0
586348.0 1110691.0 3880.0
586528.0 1110521.0 3848.0
586676.0 1109186.0 4013.0
587848.0 1109808.0 4002.0
588177.0 1107115.0 3938.0
585375.0 1106617.0 4029.0
588170.0 1109641.0 3866.0
585357.0 1106864.0 3863.0
584798.0 1106942.0 3927.0
582563.0 1104638.0 3981.0
586617.0 1109070.0 3900.0
586495.0 1109085.0 3895.0
585700.0 1109503.0 3875.0
585098.0 1109198.0 3984.0
585956.0 1110529.0 3879.0
585747.0 1110523.0 3876.0
587978.0 1109619.0 3980.0
587979.0 1108872.0 3999.0
587642.0 1108446.0 3930.0
586992.0 1109842.0 3930.0
587165.0 1109067.0 3921.0
586504.0 1110276.0 3877.0
586875.0 1109114.0 3956.0
586051.0 1110731.0 3891.0
586204.0 1110397.0 3997.0
586469.0 1109152.0 3854.0
587077.0 1107133.0 3875.0
585432.0 1109594.0 4003.0
585279.0 1109344.0 3950.0
585414.0 1108902.0 3926.0
584874.0 1106877.0 4000.0
586546.0 1110247.0 3888.0
585493.0 1109602.0 4006.0
585143.0 1109504.0 3970.0
586258.0 1109569.0 3946.0
585892.0 1109476.0 3871.0
586622.0 1109356.0 4024.0
587063.0 1109181.0 4026.0
587964.0 1109126.0 3981.0
588187.0 1108602.0 4004.0
587469.0 1107761.0 3865.0
586729.0 1107500.0 3925.0
587458.0 1107353.0 4012.0
586789.0 1107141.0 4030.0
587208.0 1107033.0 3883.0
586841.0 1106901.0 3854.0
584069.0 1107793.0 3746.0
585337.0 1108517.0 3663.0
585068.0 1107383.0 3668.0
585355.0 1108620.0 3753.0
584954.0 1107087.0 3820.0
585361.0 1108583.0 3763.0
585922.0 1109159.0 3676.0
585449.0 1107106.0 3804.0
585628.0 1107232.0 3704.0
585690.0 1107231.0 3747.0
586182.0 1108893.0 3706.0
586306.0 1108990.0 3706.0
587521.0 1106584.0 3835.0
586982.0 1107510.0 3717.0
586557.0 1108136.0 3714.0
587132.0 1108792.0 3735.0
585646.0 1107317.0 3670.0
587030.0 1108846.0 3702.0
585338.0 1107237.0 3781.0
585335.0 1107520.0 3645.0
584909.0 1107198.0 3737.0
584815.0 1107140.0 3758.0
587133.0 1109690.0 3834.0
584810.0 1107246.0 3671.0
586234.0 1108934.0 3652.0
586300.0 1109127.0 3669.0
586196.0 1109280.0 3770.0
586111.0 1109382.0 3836.0
585935.0 1109366.0 3753.0
584097.0 1107650.0 3771.0
583858.0 1107714.0 3811.0
586475.0 1110572.0 3769.0
585304.0 1109467.0 3755.0
586215.0 1110747.0 3681.0
588143.0 1109591.0 3775.0
587787.0 1109192.0 3664.0
587805.0 1108595.0 3794.0
587247.0 1109624.0 3651.0
586371.0 1110633.0 3830.0
586036.0 1109327.0 3801.0
586178.0 1108957.0 3794.0
585756.0 1109274.0 3826.0
585474.0 1109144.0 3833.0
585740.0 1107206.0 3704.0
585217.0 1108412.0 3745.0
585564.0 1107200.0 3781.0
585649.0 1106853.0 3722.0
585036.0 1108226.0 3705.0
585261.0 1107370.0 3689.0
585394.0 1106974.0 3758.0
585481.0 1106584.0 3745.0
584933.0 1107375.0 3650.0
585111.0 1106980.0 3811.0
584659.0 1107269.0 3694.0
584251.0 1107566.0 3715.0
585547.0 1109383.0 3823.0
585188.0 1109274.0 3789.0
587338.0 1109660.0 3832.0
586235.0 1109294.0 3790.0
585904.0 1109191.0 3824.0
585230.0 1108685.0 3736.0
586214.0 1108684.0 3658.0
585174.0 1108335.0 3657.0
588670.0 1109100.0 3666.0
587629.0 1108725.0 3801.0
588480.0 1108799.0 3668.0
584953.0 1107327.0 3669.0
585633.0 1107262.0 3641.0
585263.0 1107050.0 3775.0
584902.0 1107029.0 3741.0
585652.0 1106909.0 3659.0
585342.0 1106814.0 3669.0
587555.0 1106620.0 3794.0
584086.0 1107888.0 3637.0
584911.0 1107660.0 3471.0
585257.0 1107501.0 3608.0
585577.0 1107563.0 3537.0
586652.0 1108626.0 3476.0
586627.0 1107225.0 3511.0
587219.0 1107595.0 3537.0
587838.0 1109479.0 3459.0
588052.0 1107889.0 3457.0
588453.0 1108896.0 3608.0
588586.0 1108843.0 3472.0
588768.0 1107149.0 3569.0
589202.0 1107811.0 3486.0
588921.0 1108665.0 3451.0
588890.0 1108783.0 3501.0
587479.0 1107263.0 3567.0
588896.0 1108874.0 3500.0
588544.0 1108941.0 3618.0
586553.0 1106790.0 3550.0
588286.0 1108733.0 3462.0
586315.0 1106663.0 3513.0
588266.0 1109047.0 3531.0
585868.0 1106656.0 3564.0
585861.0 1107097.0 3620.0
585474.0 1107511.0 3602.0
585545.0 1107758.0 3469.0
585445.0 1107700.0 3515.0
585111.0 1107436.0 3635.0
586463.0 1108862.0 3564.0
585441.0 1107799.0 3484.0
585116.0 1107622.0 3465.0
585044.0 1107655.0 3461.0
584731.0 1107474.0 3570.0
585186.0 1108028.0 3460.0
588574.0 1108891.0 3576.0
587996.0 1109226.0 3632.0
587337.0 1109750.0 3454.0
586858.0 1108710.0 3515.0
586330.0 1106953.0 3566.0
585810.0 1107494.0 3486.0
585939.0 1107100.0 3553.0
586028.0 1106711.0 3484.0
585582.0 1107617.0 3489.0
585836.0 1106822.0 3571.0
585906.0 1106436.0 3441.0
585265.0 1107991.0 3559.0
585372.0 1107609.0 3482.0
585088.0 1107774.0 3555.0
584538.0 1107624.0 3634.0
585524.0 1109112.0 3633.0
588232.0 1109354.0 3542.0
586517.0 1108829.0 3491.0
585349.0 1108133.0 3473.0
585026.0 1107991.0 3617.0
588802.0 1108950.0 3487.0
585272.0 1107821.0 3519.0
584938.0 1107714.0 3545.0
586373.0 1107817.0 3553.0
585637.0 1107596.0 3513.0
585975.0 1107415.0 3470.0
587464.0 1107487.0 3540.0
587116.0 1107370.0 3538.0
586005.0 1107088.0 3515.0
586128.0 1106817.0 3469.0
588760.0 1106772.0 3558.0
585595.0 1107994.0 3356.0
585751.0 1106486.0 3427.0
586139.0 1107702.0 3239.0
585882.0 1106486.0 3421.0
586050.0 1106153.0 3273.0
586992.0 1108474.0 3345.0
586557.0 1106188.0 3271.0
587175.0 1107667.0 3257.0
587789.0 1107892.0 3351.0
588128.0 1107749.0 3374.0
588316.0 1108187.0 3241.0
588179.0 1107542.0 3255.0
588578.0 1108081.0 3255.0
588744.0 1108427.0 3371.0
588885.0 1108054.0 3308.0
588830.0 1106862.0 3388.0
589251.0 1107786.0 3418.0
589313.0 1107452.0 3339.0
589300.0 1107030.0 3272.0
589512.0 1107879.0 3380.0
589516.0 1107832.0 3412.0
589361.0 1106923.0 3281.0
589462.0 1106945.0 3299.0
589695.0 1106845.0 3313.0
589470.0 1106830.0 3290.0
590018.0 1107597.0 3349.0
589395.0 1106910.0 3314.0
589153.0 1106656.0 3252.0
589764.0 1107439.0 3339.0
589488.0 1107220.0 3336.0
589421.0 1107268.0 3348.0
589317.0 1107228.0 3292.0
589914.0 1107972.0 3255.0
589805.0 1107913.0 3311.0
589469.0 1107866.0 3396.0
589164.0 1107607.0 3344.0
589512.0 1108307.0 3268.0
588950.0 1108161.0 3346.0
588893.0 1108270.0 3343.0
586796.0 1106406.0 3299.0
586471.0 1106186.0 3318.0
588334.0 1108223.0 3263.0
588903.0 1108922.0 3413.0
586725.0 1106506.0 3331.0
588456.0 1108551.0 3371.0
586517.0 1106528.0 3416.0
586655.0 1106656.0 3344.0
588419.0 1108740.0 3417.0
588481.0 1108955.0 3280.0
585935.0 1106234.0 3283.0
586474.0 1106961.0 3429.0
587101.0 1107624.0 3344.0
586247.0 1107202.0 3420.0
586124.0 1107403.0 3318.0
587871.0 1109393.0 3299.0
586113.0 1108077.0 3369.0
586132.0 1108203.0 3300.0
586106.0 1108435.0 3254.0
585386.0 1108071.0 3391.0
585994.0 1108743.0 3344.0
588631.0 1108473.0 3299.0
588247.0 1108800.0 3350.0
588378.0 1108447.0 3355.0
588735.0 1107322.0 3436.0
587991.0 1108780.0 3280.0
588452.0 1107214.0 3239.0
588105.0 1107601.0 3411.0
587744.0 1108168.0 3338.0
587852.0 1107791.0 3353.0
587941.0 1107409.0 3289.0
587422.0 1108325.0 3306.0
587580.0 1107965.0 3343.0
587703.0 1107563.0 3377.0
587138.0 1108558.0 3395.0
587421.0 1107723.0 3420.0
587438.0 1107329.0 3272.0
586323.0 1107639.0 3261.0
586026.0 1107653.0 3366.0
586147.0 1107280.0 3427.0
586350.0 1106551.0 3369.0
585666.0 1107847.0 3386.0
586077.0 1106295.0 3271.0
585433.0 1108021.0 3362.0
585664.0 1106412.0 3385.0
588278.0 1109159.0 3303.0
586495.0 1108553.0 3370.0
586124.0 1108418.0 3422.0
588116.0 1108780.0 3399.0
585612.0 1108025.0 3299.0
588789.0 1108692.0 3381.0
588462.0 1108620.0 3315.0
588121.0 1108489.0 3357.0
587761.0 1108365.0 3323.0
