507313.0 1086108.0 13287.0
507366.0 1086135.0 13283.0
507355.0 1086097.0 13253.0
507666.0 1089523.0 13055.0
508244.0 1090332.0 13229.0
507039.0 1085671.0 13070.0
508201.0 1090287.0 13151.0
506430.0 1090238.0 13125.0
509038.0 1091410.0 13102.0
506199.0 1091077.0 12966.0
506504.0 1089241.0 12931.0
506589.0 1089823.0 12852.0
506503.0 1090960.0 12871.0
507151.0 1085855.0 13037.0
508149.0 1090455.0 12966.0
506907.0 1085404.0 13018.0
506676.0 1085315.0 12868.0
507408.0 1089335.0 12919.0
506330.0 1088987.0 12853.0
506511.0 1090078.0 12905.0
506648.0 1090701.0 12869.0
506690.0 1091029.0 12972.0
506298.0 1090945.0 12926.0
506379.0 1089730.0 12896.0
506417.0 1089183.0 12953.0
506090.0 1090821.0 12974.0
506195.0 1089210.0 12893.0
506503.0 1091000.0 12909.0
506512.0 1090002.0 12862.0
508181.0 1090683.0 12898.0
507464.0 1089750.0 12854.0
506249.0 1089060.0 12876.0
507082.0 1085822.0 13027.0
506380.0 1088393.0 12774.0
506377.0 1088921.0 12812.0
507075.0 1085930.0 12673.0
506722.0 1090173.0 12777.0
506805.0 1090784.0 12695.0
507564.0 1089408.0 12720.0
507964.0 1090577.0 12718.0
509821.0 1086344.0 12781.0
509831.0 1086304.0 12778.0
506633.0 1085461.0 12792.0
506435.0 1088308.0 12718.0
507571.0 1089013.0 12747.0
507878.0 1090201.0 12639.0
509424.0 1091165.0 12659.0
506618.0 1089702.0 12783.0
506644.0 1089885.0 12786.0
507882.0 1090546.0 12659.0
507460.0 1089390.0 12707.0
506582.0 1089886.0 12797.0
506401.0 1088612.0 12771.0
506189.0 1088711.0 12832.0
506182.0 1088224.0 12764.0
508954.0 1091368.0 12809.0
506590.0 1089844.0 12799.0
507649.0 1089666.0 12665.0
507304.0 1089468.0 12778.0
506484.0 1088964.0 12815.0
506306.0 1088365.0 12757.0
507818.0 1089065.0 12650.0
506269.0 1088132.0 12663.0
506875.0 1085361.0 12690.0
509956.0 1086377.0 12716.0
507097.0 1090772.0 12448.0
507849.0 1090562.0 12443.0
509156.0 1091302.0 12510.0
509634.0 1086402.0 12586.0
509554.0 1086311.0 12499.0
509547.0 1086471.0 12484.0
506160.0 1087957.0 12438.0
508039.0 1089179.0 12518.0
507568.0 1089564.0 12479.0
507944.0 1090341.0 12472.0
508999.0 1091303.0 12547.0
508016.0 1090448.0 12629.0
507631.0 1089128.0 12635.0
506949.0 1090772.0 12514.0
506794.0 1089993.0 12637.0
506864.0 1085444.0 12603.0
506365.0 1088080.0 12600.0
506909.0 1090920.0 12592.0
507142.0 1090871.0 12516.0
506934.0 1090154.0 12525.0
508005.0 1090471.0 12626.0
509399.0 1091011.0 12607.0
507804.0 1089403.0 12468.0
506433.0 1088030.0 12521.0
507587.0 1086662.0 12588.0
507049.0 1085743.0 12627.0
509463.0 1086426.0 12449.0
506205.0 1087748.0 12300.0
506557.0 1087871.0 12267.0
507009.0 1085137.0 12276.0
507798.0 1086953.0 12368.0
509049.0 1086379.0 12355.0
508905.0 1086443.0 12283.0
507059.0 1085582.0 12258.0
506196.0 1087664.0 12268.0
506552.0 1087919.0 12252.0
507792.0 1090525.0 12320.0
507174.0 1090712.0 12363.0
509310.0 1091104.0 12397.0
509023.0 1091034.0 12308.0
509411.0 1086442.0 12388.0
509118.0 1086481.0 12284.0
507509.0 1089663.0 12431.0
507643.0 1086831.0 12240.0
507546.0 1086777.0 12425.0
507080.0 1090729.0 12409.0
506053.0 1087692.0 12276.0
507044.0 1090677.0 12424.0
507205.0 1090648.0 12288.0
508904.0 1091318.0 12274.0
507659.0 1090618.0 12345.0
509243.0 1091217.0 12420.0
506003.0 1087805.0 12426.0
506651.0 1087950.0 12352.0
507547.0 1086909.0 12386.0
507161.0 1085724.0 12302.0
506477.0 1087695.0 12098.0
507138.0 1084542.0 12067.0
507056.0 1085728.0 12078.0
506848.0 1089297.0 12159.0
507250.0 1084727.0 12151.0
507695.0 1090605.0 12154.0
508637.0 1086773.0 12099.0
508880.0 1086514.0 12117.0
509004.0 1091180.0 12193.0
507212.0 1084512.0 12200.0
507165.0 1084920.0 12129.0
508730.0 1086534.0 12113.0
506808.0 1089326.0 12073.0
507199.0 1089551.0 12147.0
507128.0 1090026.0 12098.0
510112.0 1093053.0 12045.0
509954.0 1093129.0 12061.0
508835.0 1086553.0 12113.0
508656.0 1086575.0 12061.0
507843.0 1086802.0 12158.0
506952.0 1089660.0 12236.0
506246.0 1087732.0 12201.0
506624.0 1087739.0 12086.0
508535.0 1086812.0 12040.0
508708.0 1086617.0 12066.0
508847.0 1086507.0 12066.0
507248.0 1084653.0 12129.0
507104.0 1089625.0 12037.0
507340.0 1089755.0 11938.0
507729.0 1086792.0 12018.0
507553.0 1089726.0 12021.0
508237.0 1086756.0 11924.0
508336.0 1090035.0 11842.0
508717.0 1090337.0 11928.0
508701.0 1091352.0 12025.0
508957.0 1089992.0 11883.0
510012.0 1093115.0 12018.0
508429.0 1086575.0 11936.0
508770.0 1086726.0 11960.0
508891.0 1090102.0 11851.0
507653.0 1089730.0 11920.0
508437.0 1090152.0 11958.0
507201.0 1089690.0 11963.0
507212.0 1089829.0 11878.0
507628.0 1090499.0 11869.0
510107.0 1093217.0 11998.0
508946.0 1089986.0 11858.0
508106.0 1090219.0 11873.0
508244.0 1086707.0 12015.0
507149.0 1089862.0 11962.0
507340.0 1084694.0 11994.0
507084.0 1085669.0 11845.0
506450.0 1087625.0 12007.0
509908.0 1093344.0 11965.0
508741.0 1091123.0 11888.0
508314.0 1090330.0 11990.0
507183.0 1089748.0 11966.0
508456.0 1090173.0 11926.0
507588.0 1089760.0 11880.0
508978.0 1090240.0 11850.0
506681.0 1087573.0 11872.0
507758.0 1086707.0 12007.0
508136.0 1086680.0 11865.0
507097.0 1087447.0 11646.0
507897.0 1090042.0 11728.0
508121.0 1090036.0 11802.0
508615.0 1089909.0 11833.0
509021.0 1091143.0 11647.0
508184.0 1086664.0 11832.0
508489.0 1089871.0 11814.0
508072.0 1089949.0 11778.0
507660.0 1089893.0 11762.0
507663.0 1090017.0 11685.0
508596.0 1089786.0 11653.0
508290.0 1090113.0 11813.0
507868.0 1090088.0 11669.0
507669.0 1089900.0 11686.0
506907.0 1087411.0 11685.0
506666.0 1087433.0 11782.0
506073.0 1084513.0 11770.0
509683.0 1091039.0 11651.0
507986.0 1090020.0 11727.0
508527.0 1090093.0 11742.0
508871.0 1089967.0 11831.0
508436.0 1089816.0 11700.0
506695.0 1087435.0 11774.0
508304.0 1086550.0 11815.0
506090.0 1084849.0 11705.0
506824.0 1084715.0 11444.0
507001.0 1084650.0 11587.0
506985.0 1085733.0 11569.0
506930.0 1087317.0 11488.0
507404.0 1087224.0 11503.0
507711.0 1090304.0 11498.0
508642.0 1091107.0 11515.0
506840.0 1084646.0 11494.0
507779.0 1086604.0 11542.0
507345.0 1087292.0 11616.0
506839.0 1087328.0 11592.0
509631.0 1090814.0 11569.0
509292.0 1090960.0 11569.0
507568.0 1090125.0 11578.0
509275.0 1091057.0 11498.0
508987.0 1091078.0 11487.0
507605.0 1090339.0 11525.0
507422.0 1090117.0 11604.0
507169.0 1087293.0 11504.0
507014.0 1087371.0 11526.0
506843.0 1084831.0 11617.0
507430.0 1090585.0 11577.0
509283.0 1091275.0 11535.0
507482.0 1090060.0 11624.0
507081.0 1087509.0 11561.0
507110.0 1087324.0 11475.0
507399.0 1087173.0 11581.0
506669.0 1084870.0 11315.0
507765.0 1086468.0 11324.0
507501.0 1090290.0 11424.0
508509.0 1091189.0 11272.0
509528.0 1092889.0 11285.0
509733.0 1092972.0 11437.0
506995.0 1085766.0 11306.0
506157.0 1086532.0 11407.0
507243.0 1087417.0 11409.0
508539.0 1091131.0 11372.0
509654.0 1092987.0 11380.0
508697.0 1091000.0 11359.0
507738.0 1086747.0 11350.0
507074.0 1085717.0 11271.0
509550.0 1092973.0 11346.0
509678.0 1092866.0 11270.0
508857.0 1091084.0 11423.0
507637.0 1090410.0 11419.0
507797.0 1090405.0 11318.0
506236.0 1086612.0 11247.0
507317.0 1087025.0 11243.0
507691.0 1086624.0 11398.0
506525.0 1085062.0 11254.0
506700.0 1084879.0 11344.0
506693.0 1084714.0 11305.0
507020.0 1084556.0 11410.0
506245.0 1085058.0 11136.0
506492.0 1085016.0 11189.0
507317.0 1086897.0 11155.0
507588.0 1086616.0 11070.0
510116.0 1092546.0 11166.0
510356.0 1092566.0 11154.0
506467.0 1084771.0 11229.0
506194.0 1084910.0 11169.0
507736.0 1086665.0 11128.0
507046.0 1086920.0 11102.0
506169.0 1086618.0 11118.0
510609.0 1092301.0 11105.0
510589.0 1092478.0 11139.0
509995.0 1092408.0 11132.0
510405.0 1092548.0 11130.0
509882.0 1092504.0 11136.0
509358.0 1092427.0 11063.0
509715.0 1092644.0 11191.0
510369.0 1092542.0 11170.0
509987.0 1092243.0 11038.0
509816.0 1092628.0 11139.0
509364.0 1092651.0 11086.0
507247.0 1086833.0 11056.0
506196.0 1086534.0 11107.0
506329.0 1084897.0 11126.0
509285.0 1092721.0 11090.0
509744.0 1092737.0 11172.0
509793.0 1092599.0 11109.0
510268.0 1092387.0 11077.0
508419.0 1090962.0 11104.0
506111.0 1086425.0 11232.0
507758.0 1086486.0 11189.0
506127.0 1084889.0 11173.0
506137.0 1083764.0 10863.0
507014.0 1085912.0 10866.0
507142.0 1086831.0 10963.0
509011.0 1092499.0 10898.0
506203.0 1083857.0 10947.0
507086.0 1085930.0 10881.0
507332.0 1086687.0 10959.0
507782.0 1090588.0 11001.0
507508.0 1090596.0 11014.0
508901.0 1092362.0 10845.0
509281.0 1092624.0 11016.0
507592.0 1090614.0 10973.0
507402.0 1086769.0 11026.0
507093.0 1085736.0 11035.0
506289.0 1083797.0 10857.0
509313.0 1092578.0 11004.0
509363.0 1092433.0 10938.0
508526.0 1090934.0 11020.0
507111.0 1086767.0 10961.0
506151.0 1084810.0 10933.0
506115.0 1083971.0 10921.0
506160.0 1083809.0 10864.0
507509.0 1086305.0 10651.0
507738.0 1086047.0 10664.0
508220.0 1090715.0 10671.0
508596.0 1092378.0 10772.0
508855.0 1092263.0 10784.0
508830.0 1092851.0 10762.0
507513.0 1086104.0 10639.0
507446.0 1086386.0 10810.0
508239.0 1090721.0 10768.0
509474.0 1091426.0 10748.0
509886.0 1091630.0 10687.0
507538.0 1090692.0 10717.0
508542.0 1092034.0 10696.0
508789.0 1092946.0 10666.0
509867.0 1091680.0 10700.0
508900.0 1092615.0 10773.0
508669.0 1092714.0 10823.0
508664.0 1092144.0 10691.0
507689.0 1090734.0 10709.0
508818.0 1092585.0 10788.0
508841.0 1092421.0 10740.0
508554.0 1092081.0 10671.0
509724.0 1091675.0 10713.0
507163.0 1086581.0 10761.0
507312.0 1086299.0 10499.0
507095.0 1090594.0 10516.0
507770.0 1090770.0 10636.0
508492.0 1091705.0 10575.0
508687.0 1091823.0 10582.0
508980.0 1091110.0 10547.0
507109.0 1086067.0 10547.0
509086.0 1091143.0 10540.0
508759.0 1091602.0 10506.0
508656.0 1091798.0 10585.0
510024.0 1091418.0 10523.0
509708.0 1091509.0 10610.0
508873.0 1091536.0 10438.0
508951.0 1090998.0 10439.0
508630.0 1091574.0 10492.0
508330.0 1091485.0 10508.0
507449.0 1086232.0 10440.0
508567.0 1091886.0 10596.0
508868.0 1091849.0 10501.0
508483.0 1091592.0 10564.0
508653.0 1091437.0 10449.0
509303.0 1091478.0 10624.0
508900.0 1091240.0 10583.0
508058.0 1090836.0 10559.0
509939.0 1091552.0 10626.0
509529.0 1091343.0 10578.0
509074.0 1091134.0 10456.0
507281.0 1086453.0 10626.0
507507.0 1086133.0 10575.0
507137.0 1085898.0 10583.0
507585.0 1085975.0 10582.0
506627.0 1088334.0 10311.0
506931.0 1086069.0 10413.0
507158.0 1086564.0 10288.0
509045.0 1091660.0 10381.0
507038.0 1086262.0 10248.0
507314.0 1087487.0 10329.0
506369.0 1088268.0 10239.0
506314.0 1088627.0 10241.0
508735.0 1090830.0 10286.0
507966.0 1090679.0 10361.0
508750.0 1091105.0 10381.0
509294.0 1091580.0 10311.0
507639.0 1090764.0 10288.0
508440.0 1091264.0 10277.0
509232.0 1091689.0 10250.0
509805.0 1091171.0 10362.0
509100.0 1091549.0 10296.0
508593.0 1091010.0 10260.0
508365.0 1090512.0 10412.0
507696.0 1090597.0 10429.0
506940.0 1086224.0 10323.0
506467.0 1088458.0 10238.0
506220.0 1086382.0 10395.0
509006.0 1091685.0 10328.0
508286.0 1091244.0 10337.0
507871.0 1091002.0 10317.0
507041.0 1090539.0 10339.0
509102.0 1090952.0 10363.0
509786.0 1091093.0 10281.0
506284.0 1088609.0 10253.0
507136.0 1087354.0 10259.0
511177.0 1089305.0 10290.0
506617.0 1086645.0 10397.0
506605.0 1086506.0 10272.0
507239.0 1086305.0 10321.0
506011.0 1085749.0 10182.0
506038.0 1086249.0 10190.0
506162.0 1089057.0 10156.0
506093.0 1089624.0 10109.0
506444.0 1088170.0 10216.0
506387.0 1088743.0 10208.0
506323.0 1089321.0 10215.0
506695.0 1087790.0 10159.0
508397.0 1091272.0 10210.0
508702.0 1090606.0 10081.0
509369.0 1090887.0 10180.0
506025.0 1085883.0 10106.0
506979.0 1087213.0 10085.0
506684.0 1087686.0 10098.0
506424.0 1087932.0 10143.0
506223.0 1088758.0 10234.0
506305.0 1089041.0 10157.0
506089.0 1089423.0 10118.0
508396.0 1090810.0 10052.0
508461.0 1090973.0 10105.0
506043.0 1089834.0 10106.0
506752.0 1090463.0 10203.0
511312.0 1089367.0 10156.0
511140.0 1088963.0 10050.0
507952.0 1090817.0 10043.0
507021.0 1087298.0 10061.0
507185.0 1086227.0 10185.0
506606.0 1088294.0 10169.0
506600.0 1087776.0 10094.0
506648.0 1087259.0 10079.0
506376.0 1089023.0 10116.0
506476.0 1087887.0 10187.0
506570.0 1086771.0 10131.0
506218.0 1089009.0 10176.0
508367.0 1091144.0 10138.0
508576.0 1090973.0 10174.0
506022.0 1089589.0 10051.0
508654.0 1090822.0 10063.0
506217.0 1089446.0 10038.0
509377.0 1090905.0 10167.0
506217.0 1089156.0 10128.0
506408.0 1088994.0 10129.0
506381.0 1088111.0 10222.0
506506.0 1087788.0 10117.0
511397.0 1089237.0 10045.0
506827.0 1086188.0 10037.0
506875.0 1087271.0 9939.0
507022.0 1086652.0 9999.0
506993.0 1087223.0 10031.0
506915.0 1090156.0 9882.0
507096.0 1090160.0 9845.0
508030.0 1090831.0 9862.0
508244.0 1090921.0 9980.0
511370.0 1089132.0 9904.0
506865.0 1086313.0 9973.0
506928.0 1087434.0 9974.0
508049.0 1090793.0 10031.0
506896.0 1090232.0 9961.0
511451.0 1089030.0 9890.0
510746.0 1088356.0 9854.0
508164.0 1090932.0 9854.0
507013.0 1090338.0 9943.0
506795.0 1087343.0 9970.0
506127.0 1089567.0 10034.0
506057.0 1085865.0 9878.0
506797.0 1090306.0 9986.0
508083.0 1090853.0 9859.0
506815.0 1090111.0 9853.0
509807.0 1090736.0 9874.0
506770.0 1087493.0 9985.0
506745.0 1087238.0 9981.0
506209.0 1086309.0 10029.0
511507.0 1089062.0 9916.0
511115.0 1088855.0 9982.0
506744.0 1086476.0 9983.0
506007.0 1085979.0 10028.0
506722.0 1086381.0 9686.0
506743.0 1086979.0 9644.0
506913.0 1086724.0 9681.0
507684.0 1089345.0 9684.0
511275.0 1088784.0 9763.0
511652.0 1088853.0 9704.0
512813.0 1088642.0 9673.0
512863.0 1088591.0 9721.0
510984.0 1088458.0 9813.0
510947.0 1088652.0 9779.0
506812.0 1086471.0 9784.0
507985.0 1089408.0 9659.0
508424.0 1089651.0 9666.0
506942.0 1089771.0 9739.0
506885.0 1089947.0 9814.0
508105.0 1090855.0 9810.0
512799.0 1088616.0 9693.0
511235.0 1088822.0 9809.0
510935.0 1088603.0 9818.0
508180.0 1089407.0 9649.0
506957.0 1089808.0 9685.0
506257.0 1086189.0 9721.0
506955.0 1089990.0 9748.0
507255.0 1089938.0 9642.0
506922.0 1089738.0 9707.0
508539.0 1089827.0 9745.0
507766.0 1089412.0 9649.0
506890.0 1087125.0 9795.0
506892.0 1086915.0 9679.0
511395.0 1088833.0 9679.0
511000.0 1088577.0 9763.0
510941.0 1088433.0 9711.0
512809.0 1088642.0 9749.0
507299.0 1089530.0 9555.0
507566.0 1088999.0 9460.0
507485.0 1089548.0 9588.0
512184.0 1087864.0 9549.0
512619.0 1088532.0 9547.0
512045.0 1087676.0 9447.0
511484.0 1088657.0 9618.0
511353.0 1088839.0 9616.0
506426.0 1086177.0 9589.0
506924.0 1086639.0 9452.0
507542.0 1089262.0 9563.0
507291.0 1089653.0 9615.0
508073.0 1090950.0 9533.0
507726.0 1089284.0 9622.0
507488.0 1089472.0 9576.0
507530.0 1089009.0 9513.0
507327.0 1089615.0 9587.0
507377.0 1089097.0 9539.0
506914.0 1086778.0 9567.0
506472.0 1086231.0 9438.0
506370.0 1086209.0 9508.0
508459.0 1090695.0 9459.0
507155.0 1089651.0 9606.0
507328.0 1089490.0 9537.0
508407.0 1089533.0 9603.0
507990.0 1089291.0 9608.0
507535.0 1089068.0 9524.0
506353.0 1086320.0 9576.0
506277.0 1086087.0 9560.0
511343.0 1088683.0 9537.0
506609.0 1086196.0 9258.0
507835.0 1088761.0 9323.0
508799.0 1085627.0 9252.0
512046.0 1087727.0 9416.0
512578.0 1088587.0 9416.0
506528.0 1086313.0 9241.0
507730.0 1088827.0 9257.0
507707.0 1089025.0 9363.0
512000.0 1087688.0 9437.0
508980.0 1085513.0 9285.0
507616.0 1088734.0 9302.0
508101.0 1090787.0 9332.0
507482.0 1088843.0 9407.0
507534.0 1088717.0 9285.0
511713.0 1088749.0 9276.0
511926.0 1087632.0 9240.0
507339.0 1086652.0 9056.0
507829.0 1086293.0 9046.0
508295.0 1085996.0 9121.0
508023.0 1090864.0 9227.0
508543.0 1085892.0 9110.0
512093.0 1087126.0 9171.0
512396.0 1087096.0 9205.0
512063.0 1087047.0 9129.0
509260.0 1085613.0 9170.0
512080.0 1087320.0 9200.0
508915.0 1085652.0 9172.0
508261.0 1085865.0 9122.0
508145.0 1086052.0 9041.0
512102.0 1088525.0 9233.0
507710.0 1086168.0 9150.0
507455.0 1086312.0 9089.0
511398.0 1090440.0 9136.0
507740.0 1088626.0 9181.0
512418.0 1087080.0 9114.0
511945.0 1087166.0 9116.0
509232.0 1085481.0 9206.0
508293.0 1085854.0 9104.0
507416.0 1088418.0 9043.0
507398.0 1086345.0 9039.0
506477.0 1086163.0 9236.0
511766.0 1088636.0 9069.0
512285.0 1088623.0 9177.0
507911.0 1086242.0 9047.0
508216.0 1086125.0 9051.0
508350.0 1085959.0 9054.0
508691.0 1085773.0 9042.0
511978.0 1087298.0 9105.0
509068.0 1085618.0 9159.0
509307.0 1085479.0 9152.0
507390.0 1087257.0 8899.0
507425.0 1087801.0 8939.0
507522.0 1087802.0 8976.0
507592.0 1088350.0 8974.0
507834.0 1087925.0 8882.0
507780.0 1088458.0 9001.0
508621.0 1089756.0 8956.0
511632.0 1087521.0 8953.0
511812.0 1086925.0 8892.0
511788.0 1087463.0 8991.0
511719.0 1088572.0 9003.0
511668.0 1090732.0 8871.0
511957.0 1087133.0 9018.0
511771.0 1087268.0 8955.0
511720.0 1087590.0 9019.0
507328.0 1086493.0 9025.0
506386.0 1086402.0 9019.0
507206.0 1086839.0 8854.0
507516.0 1087354.0 8980.0
507350.0 1087547.0 8986.0
507717.0 1087810.0 8900.0
508148.0 1088029.0 8848.0
507446.0 1087987.0 8971.0
512257.0 1090846.0 8845.0
511784.0 1087444.0 9021.0
508508.0 1085896.0 8997.0
507928.0 1088868.0 8910.0
508018.0 1087843.0 8870.0
507740.0 1088597.0 8980.0
507922.0 1086374.0 9035.0
507556.0 1088135.0 8950.0
507591.0 1087589.0 8904.0
507410.0 1087953.0 8979.0
507431.0 1087455.0 8907.0
507543.0 1086442.0 9002.0
507264.0 1087433.0 8912.0
506724.0 1086234.0 8939.0
507965.0 1090643.0 8930.0
508285.0 1090540.0 8984.0
507921.0 1088992.0 9036.0
507922.0 1088847.0 8918.0
507545.0 1088556.0 9019.0
511395.0 1090536.0 8913.0
507796.0 1088510.0 8929.0
507726.0 1088239.0 8907.0
507351.0 1087989.0 8997.0
507606.0 1087888.0 8929.0
508007.0 1087851.0 8866.0
507613.0 1087619.0 8905.0
507246.0 1087352.0 8961.0
507359.0 1087241.0 8861.0
507354.0 1086475.0 8962.0
506537.0 1086076.0 9033.0
507562.0 1086360.0 9018.0
511730.0 1087839.0 8967.0
511831.0 1087475.0 9021.0
511576.0 1087134.0 8874.0
506304.0 1086942.0 8708.0
508546.0 1088126.0 8774.0
508512.0 1089818.0 8833.0
511721.0 1086925.0 8794.0
511547.0 1090543.0 8790.0
511952.0 1090636.0 8718.0
512122.0 1090770.0 8779.0
512578.0 1090752.0 8827.0
511715.0 1086653.0 8707.0
511403.0 1086719.0 8772.0
511765.0 1086962.0 8822.0
510216.0 1087154.0 8694.0
510978.0 1088577.0 8802.0
507194.0 1087053.0 8779.0
506112.0 1086737.0 8752.0
508594.0 1088239.0 8731.0
511891.0 1090515.0 8671.0
508560.0 1090088.0 8836.0
512770.0 1090709.0 8756.0
512300.0 1090760.0 8776.0
511615.0 1088003.0 8784.0
511701.0 1086881.0 8790.0
511138.0 1088534.0 8795.0
510209.0 1087148.0 8676.0
508679.0 1089988.0 8740.0
508527.0 1088202.0 8725.0
508261.0 1088121.0 8800.0
507428.0 1086948.0 8824.0
507229.0 1086892.0 8790.0
506175.0 1086713.0 8673.0
506070.0 1086698.0 8729.0
508684.0 1090021.0 8777.0
512167.0 1090959.0 8834.0
512383.0 1090846.0 8804.0
511569.0 1090456.0 8665.0
508383.0 1088099.0 8769.0
507357.0 1087048.0 8789.0
507026.0 1086768.0 8790.0
507181.0 1086705.0 8802.0
510351.0 1087235.0 8694.0
511624.0 1086866.0 8780.0
507955.0 1084122.0 8522.0
508159.0 1089327.0 8447.0
508036.0 1090486.0 8602.0
508255.0 1090255.0 8632.0
508844.0 1088586.0 8593.0
509094.0 1088851.0 8446.0
509959.0 1086903.0 8477.0
510124.0 1087069.0 8617.0
511585.0 1088275.0 8438.0
511717.0 1088157.0 8572.0
511887.0 1088013.0 8537.0
511903.0 1088572.0 8510.0
511852.0 1090178.0 8499.0
512165.0 1087736.0 8440.0
512045.0 1090082.0 8464.0
512501.0 1088965.0 8539.0
512753.0 1088959.0 8543.0
512987.0 1089064.0 8484.0
513200.0 1089248.0 8457.0
507821.0 1083865.0 8617.0
511971.0 1087830.0 8513.0
509873.0 1086841.0 8457.0
511792.0 1088060.0 8549.0
513005.0 1088825.0 8458.0
513384.0 1089086.0 8562.0
511642.0 1088273.0 8541.0
512068.0 1088571.0 8462.0
512503.0 1088853.0 8599.0
512961.0 1089040.0 8473.0
506424.0 1086566.0 8567.0
508997.0 1088465.0 8618.0
512010.0 1090215.0 8527.0
508744.0 1088583.0 8470.0
508150.0 1089150.0 8442.0
507885.0 1090474.0 8545.0
513051.0 1089090.0 8503.0
512899.0 1089082.0 8484.0
511932.0 1090294.0 8514.0
511674.0 1088181.0 8592.0
511845.0 1086635.0 8618.0
511247.0 1088435.0 8458.0
509932.0 1087049.0 8624.0
508971.0 1088448.0 8531.0
508753.0 1088487.0 8605.0
508050.0 1090405.0 8622.0
507728.0 1090459.0 8517.0
507843.0 1090460.0 8590.0
511955.0 1090666.0 8630.0
512142.0 1090526.0 8579.0
511735.0 1090319.0 8555.0
511923.0 1090170.0 8475.0
508751.0 1088369.0 8624.0
513174.0 1089095.0 8485.0
511644.0 1088245.0 8545.0
509928.0 1087010.0 8591.0
510166.0 1086990.0 8553.0
511845.0 1086735.0 8602.0
508408.0 1089638.0 8260.0
511351.0 1088316.0 8345.0
511572.0 1088770.0 8300.0
511764.0 1088767.0 8354.0
511920.0 1089683.0 8322.0
507815.0 1083918.0 8407.0
512223.0 1087653.0 8390.0
511605.0 1088508.0 8415.0
512013.0 1088745.0 8397.0
511471.0 1088656.0 8305.0
506885.0 1086693.0 8244.0
511971.0 1089754.0 8393.0
509069.0 1088777.0 8436.0
512300.0 1088566.0 8298.0
511929.0 1089740.0 8323.0
512077.0 1088622.0 8430.0
512151.0 1087592.0 8406.0
511532.0 1088710.0 8264.0
511379.0 1088531.0 8360.0
509095.0 1088681.0 8400.0
508147.0 1090327.0 8258.0
506728.0 1086661.0 8295.0
507963.0 1090332.0 8374.0
508484.0 1089877.0 8294.0
509098.0 1088650.0 8389.0
512055.0 1090007.0 8414.0
512009.0 1089759.0 8346.0
511774.0 1088620.0 8434.0
511315.0 1088500.0 8305.0
512010.0 1088570.0 8301.0
509732.0 1086799.0 8365.0
512103.0 1087873.0 8370.0
507713.0 1083925.0 8437.0
511147.0 1088862.0 8126.0
511129.0 1089454.0 8156.0
511377.0 1089516.0 8124.0
511608.0 1089338.0 8139.0
511812.0 1089390.0 8139.0
512311.0 1088324.0 8077.0
507349.0 1083130.0 8062.0
510987.0 1088748.0 8079.0
511757.0 1089246.0 8157.0
511222.0 1089188.0 8117.0
511612.0 1089423.0 8140.0
511252.0 1089594.0 8167.0
508302.0 1089383.0 8212.0
507988.0 1089382.0 8080.0
508340.0 1089942.0 8180.0
511600.0 1089281.0 8130.0
511403.0 1089272.0 8124.0
511232.0 1089084.0 8120.0
511037.0 1089444.0 8129.0
509416.0 1086567.0 8222.0
508275.0 1089263.0 8228.0
510821.0 1089446.0 8043.0
511571.0 1089560.0 8210.0
511136.0 1089338.0 8120.0
511905.0 1089553.0 8212.0
511486.0 1089368.0 8122.0
511068.0 1089161.0 8059.0
511135.0 1088912.0 8109.0
511208.0 1088679.0 8220.0
506631.0 1086455.0 7928.0
507006.0 1083032.0 7893.0
507515.0 1083353.0 7949.0
508117.0 1090132.0 7879.0
508290.0 1089923.0 7972.0
509438.0 1086468.0 7978.0
510718.0 1088798.0 7873.0
510921.0 1089124.0 7987.0
512511.0 1088369.0 8010.0
512790.0 1087891.0 7847.0
506971.0 1082848.0 7971.0
507192.0 1083128.0 7863.0
507544.0 1083405.0 7926.0
512494.0 1087833.0 7869.0
509573.0 1086431.0 7954.0
510852.0 1088901.0 7962.0
506697.0 1086753.0 7878.0
510867.0 1089291.0 8006.0
512476.0 1088083.0 7927.0
510984.0 1088945.0 8033.0
510765.0 1089004.0 7918.0
510285.0 1088577.0 7942.0
509501.0 1086339.0 7894.0
508173.0 1089821.0 7979.0
508205.0 1090415.0 7841.0
508159.0 1090035.0 8027.0
508063.0 1089784.0 7982.0
508468.0 1089760.0 8033.0
510701.0 1088965.0 7894.0
512670.0 1088125.0 7853.0
509285.0 1086298.0 7862.0
507590.0 1083871.0 7926.0
506236.0 1090040.0 7657.0
506405.0 1089952.0 7693.0
507301.0 1083259.0 7724.0
508373.0 1086346.0 7642.0
508183.0 1089594.0 7649.0
508589.0 1086339.0 7731.0
508318.0 1091086.0 7649.0
508818.0 1086098.0 7664.0
508500.0 1091534.0 7682.0
508555.0 1092078.0 7667.0
509282.0 1086223.0 7779.0
509821.0 1086257.0 7674.0
510403.0 1088748.0 7689.0
510568.0 1088861.0 7758.0
507139.0 1083215.0 7735.0
512750.0 1087787.0 7836.0
509263.0 1085926.0 7744.0
509211.0 1086126.0 7729.0
508834.0 1086195.0 7711.0
508495.0 1086297.0 7669.0
510536.0 1088636.0 7780.0
510477.0 1088909.0 7649.0
508356.0 1089567.0 7824.0
506774.0 1089474.0 7662.0
506500.0 1089644.0 7694.0
508541.0 1091659.0 7702.0
508488.0 1091893.0 7730.0
508495.0 1092074.0 7682.0
512869.0 1088052.0 7780.0
512682.0 1087965.0 7812.0
512482.0 1087605.0 7749.0
510503.0 1088733.0 7735.0
508750.0 1092126.0 7668.0
509255.0 1086036.0 7651.0
508625.0 1091973.0 7692.0
509112.0 1086011.0 7730.0
508417.0 1091750.0 7676.0
508853.0 1086216.0 7709.0
508299.0 1089951.0 7793.0
507992.0 1086449.0 7642.0
507518.0 1083625.0 7732.0
507459.0 1083144.0 7674.0
506804.0 1089436.0 7640.0
507336.0 1083346.0 7664.0
506644.0 1089578.0 7672.0
507193.0 1083112.0 7821.0
506274.0 1089767.0 7787.0
508806.0 1092358.0 7670.0
508620.0 1091983.0 7693.0
506577.0 1089813.0 7711.0
506637.0 1089613.0 7668.0
508086.0 1089659.0 7796.0
508551.0 1089666.0 7783.0
510653.0 1088819.0 7820.0
510671.0 1088596.0 7809.0
508099.0 1086418.0 7643.0
508416.0 1086373.0 7672.0
508822.0 1086339.0 7741.0
508830.0 1086157.0 7661.0
512663.0 1087855.0 7761.0
509451.0 1086139.0 7680.0
507617.0 1083860.0 7787.0
507435.0 1083351.0 7789.0
506050.0 1083163.0 7487.0
506732.0 1089602.0 7637.0
507378.0 1088804.0 7558.0
507347.0 1089392.0 7478.0
507572.0 1088926.0 7561.0
507970.0 1090201.0 7440.0
508178.0 1090663.0 7621.0
508168.0 1091166.0 7576.0
508377.0 1091630.0 7621.0
508965.0 1092204.0 7628.0
510242.0 1088724.0 7469.0
510589.0 1086034.0 7438.0
507549.0 1083427.0 7481.0
507219.0 1083389.0 7559.0
507653.0 1083651.0 7596.0
510409.0 1085925.0 7504.0
510306.0 1086059.0 7449.0
509695.0 1086113.0 7604.0
507983.0 1086309.0 7627.0
507689.0 1086341.0 7540.0
507489.0 1086411.0 7440.0
507592.0 1088709.0 7484.0
507280.0 1088766.0 7554.0
507348.0 1089070.0 7487.0
507293.0 1089232.0 7489.0
508092.0 1089703.0 7450.0
507345.0 1089460.0 7459.0
508091.0 1089954.0 7584.0
508052.0 1090152.0 7575.0
508165.0 1090584.0 7570.0
506359.0 1089911.0 7620.0
508309.0 1091062.0 7570.0
508261.0 1091331.0 7566.0
508148.0 1091567.0 7592.0
508878.0 1092129.0 7631.0
510230.0 1088848.0 7452.0
510294.0 1085910.0 7506.0
510092.0 1086084.0 7456.0
509838.0 1086105.0 7582.0
508193.0 1091498.0 7616.0
508158.0 1091002.0 7564.0
508234.0 1090478.0 7546.0
507420.0 1088821.0 7462.0
507674.0 1086325.0 7500.0
507168.0 1089107.0 7499.0
507605.0 1083637.0 7486.0
506778.0 1086851.0 7479.0
506018.0 1083113.0 7449.0
508950.0 1092307.0 7617.0
508972.0 1092090.0 7618.0
508579.0 1091847.0 7621.0
508254.0 1091575.0 7611.0
508163.0 1091277.0 7602.0
508090.0 1091004.0 7564.0
508206.0 1090814.0 7556.0
507127.0 1089467.0 7450.0
507213.0 1089291.0 7447.0
508102.0 1089533.0 7525.0
508734.0 1089582.0 7558.0
507449.0 1088680.0 7474.0
507547.0 1086440.0 7481.0
508427.0 1086221.0 7559.0
509834.0 1086393.0 7557.0
509048.0 1085989.0 7616.0
510115.0 1086214.0 7454.0
507711.0 1083877.0 7529.0
506062.0 1083021.0 7510.0
507339.0 1083228.0 7482.0
506323.0 1083376.0 7350.0
506527.0 1090566.0 7316.0
506831.0 1090152.0 7344.0
506724.0 1090610.0 7331.0
507193.0 1087981.0 7346.0
507098.0 1089696.0 7427.0
507016.0 1090239.0 7354.0
507750.0 1083928.0 7329.0
507547.0 1088193.0 7304.0
507894.0 1084036.0 7380.0
507630.0 1088407.0 7423.0
508068.0 1084351.0 7433.0
508137.0 1089556.0 7259.0
510036.0 1088919.0 7325.0
506345.0 1083109.0 7378.0
507621.0 1083781.0 7293.0
507982.0 1084076.0 7339.0
506074.0 1083222.0 7411.0
508024.0 1084395.0 7364.0
510875.0 1086064.0 7238.0
506088.0 1083478.0 7243.0
510187.0 1086207.0 7379.0
507075.0 1086357.0 7245.0
507424.0 1086605.0 7369.0
510107.0 1088579.0 7378.0
509767.0 1088680.0 7290.0
510120.0 1088941.0 7372.0
507652.0 1087835.0 7252.0
506789.0 1087477.0 7271.0
507610.0 1088006.0 7279.0
506865.0 1087699.0 7249.0
507614.0 1088202.0 7337.0
506759.0 1087835.0 7269.0
507531.0 1088361.0 7430.0
508074.0 1089187.0 7251.0
507245.0 1089629.0 7419.0
506988.0 1089790.0 7393.0
506760.0 1090051.0 7402.0
506667.0 1090352.0 7344.0
506457.0 1090544.0 7312.0
510589.0 1086017.0 7324.0
510466.0 1085862.0 7411.0
508425.0 1089504.0 7306.0
508190.0 1089452.0 7267.0
507359.0 1089337.0 7401.0
507434.0 1088305.0 7380.0
507758.0 1084230.0 7260.0
507767.0 1083722.0 7307.0
507012.0 1090176.0 7310.0
507087.0 1089626.0 7422.0
507339.0 1086335.0 7333.0
506810.0 1090326.0 7363.0
507109.0 1086419.0 7283.0
507181.0 1085268.0 7292.0
506632.0 1090448.0 7430.0
506831.0 1087408.0 7306.0
506955.0 1086418.0 7248.0
506616.0 1087912.0 7297.0
506473.0 1087752.0 7296.0
506339.0 1083427.0 7245.0
506154.0 1083298.0 7325.0
506842.0 1090648.0 7316.0
506493.0 1090549.0 7255.0
506758.0 1090375.0 7358.0
506947.0 1090197.0 7338.0
506981.0 1089931.0 7385.0
507143.0 1089749.0 7349.0
507257.0 1089103.0 7420.0
508309.0 1089471.0 7266.0
509332.0 1089227.0 7344.0
507079.0 1087740.0 7260.0
510167.0 1088916.0 7416.0
510191.0 1088746.0 7314.0
507107.0 1086342.0 7245.0
507641.0 1086264.0 7410.0
507090.0 1085314.0 7337.0
510519.0 1086111.0 7378.0
510703.0 1086031.0 7277.0
506274.0 1083339.0 7295.0
506453.0 1083258.0 7337.0
507764.0 1083746.0 7335.0
506159.0 1083784.0 7091.0
506137.0 1088129.0 7043.0
506539.0 1087783.0 7212.0
506415.0 1090671.0 7142.0
506892.0 1086463.0 7160.0
506888.0 1087017.0 7064.0
507041.0 1087436.0 7158.0
507450.0 1085592.0 7053.0
507311.0 1087397.0 7092.0
507773.0 1084571.0 7127.0
507765.0 1085180.0 7070.0
507952.0 1084558.0 7210.0
507963.0 1085097.0 7127.0
508164.0 1084949.0 7161.0
509386.0 1088619.0 7144.0
509390.0 1089172.0 7113.0
509619.0 1088904.0 7129.0
509846.0 1089056.0 7220.0
511105.0 1086323.0 7108.0
507700.0 1084120.0 7223.0
511302.0 1086201.0 7044.0
507808.0 1084447.0 7097.0
506190.0 1083770.0 7081.0
507820.0 1084726.0 7077.0
507654.0 1085254.0 7069.0
507333.0 1085898.0 7124.0
506928.0 1087298.0 7167.0
507322.0 1087514.0 7160.0
509349.0 1088691.0 7202.0
509688.0 1088929.0 7144.0
507252.0 1087650.0 7147.0
507278.0 1087876.0 7214.0
506435.0 1087858.0 7181.0
506532.0 1090783.0 7172.0
506632.0 1091022.0 7047.0
511144.0 1086258.0 7112.0
509785.0 1088827.0 7183.0
509292.0 1088628.0 7105.0
507839.0 1089231.0 7064.0
507992.0 1084167.0 7210.0
507401.0 1087790.0 7175.0
507579.0 1085228.0 7082.0
507657.0 1084722.0 7163.0
507158.0 1087432.0 7126.0
507290.0 1085766.0 7106.0
507365.0 1085238.0 7188.0
506978.0 1087540.0 7216.0
507094.0 1085835.0 7167.0
506477.0 1090968.0 7051.0
506391.0 1090708.0 7210.0
506486.0 1090814.0 7133.0
509461.0 1089077.0 7197.0
507465.0 1087973.0 7216.0
509680.0 1088951.0 7208.0
507535.0 1087792.0 7139.0
507116.0 1087554.0 7166.0
509706.0 1088790.0 7100.0
507297.0 1087465.0 7094.0
506911.0 1087214.0 7167.0
510150.0 1088560.0 7112.0
507127.0 1086106.0 7138.0
507486.0 1086068.0 7155.0
507112.0 1085880.0 7146.0
507547.0 1085927.0 7097.0
507162.0 1085693.0 7152.0
507478.0 1085667.0 7049.0
507353.0 1085211.0 7206.0
507671.0 1085083.0 7071.0
511061.0 1086268.0 7084.0
507883.0 1084576.0 7092.0
506286.0 1083748.0 7038.0
510952.0 1086085.0 7146.0
507848.0 1084349.0 7196.0
506227.0 1083436.0 7233.0
507919.0 1084281.0 7175.0
508016.0 1084185.0 7154.0
506014.0 1084113.0 6867.0
506432.0 1091232.0 6910.0
506596.0 1091136.0 7037.0
507190.0 1085825.0 6985.0
508019.0 1088498.0 6934.0
506200.0 1084013.0 6926.0
507735.0 1084962.0 7037.0
506622.0 1086667.0 6985.0
506950.0 1086946.0 7012.0
509367.0 1088870.0 6978.0
509357.0 1089014.0 6909.0
508005.0 1088441.0 6844.0
506168.0 1087922.0 6958.0
506281.0 1090826.0 7029.0
511475.0 1086280.0 6938.0
509368.0 1089058.0 7024.0
509460.0 1088595.0 6948.0
507877.0 1088172.0 7023.0
507766.0 1085836.0 6962.0
507826.0 1085310.0 6955.0
507903.0 1084746.0 7035.0
507320.0 1087313.0 6933.0
507518.0 1085755.0 7037.0
506913.0 1086970.0 7020.0
506824.0 1086894.0 7018.0
506196.0 1083933.0 6941.0
507454.0 1089136.0 6859.0
508142.0 1089289.0 6973.0
507710.0 1085502.0 6982.0
507913.0 1084866.0 7010.0
506231.0 1084017.0 6893.0
511335.0 1086267.0 7008.0
511256.0 1086200.0 6995.0
511596.0 1086269.0 6924.0
506048.0 1084649.0 6690.0
506240.0 1084401.0 6781.0
506226.0 1085567.0 6711.0
509037.0 1089125.0 6731.0
509282.0 1088766.0 6680.0
506036.0 1084192.0 6789.0
506221.0 1084583.0 6723.0
506181.0 1084808.0 6652.0
509215.0 1089071.0 6787.0
507791.0 1088429.0 6830.0
509049.0 1089170.0 6666.0
506299.0 1091378.0 6766.0
508997.0 1089074.0 6676.0
506324.0 1091458.0 6643.0
506259.0 1084589.0 6649.0
506086.0 1084455.0 6735.0
509218.0 1088861.0 6805.0
509264.0 1088688.0 6762.0
506047.0 1084327.0 6781.0
506052.0 1085172.0 6563.0
506061.0 1085708.0 6455.0
506431.0 1086431.0 6507.0
506620.0 1086610.0 6596.0
506344.0 1091936.0 6472.0
508403.0 1089045.0 6450.0
508613.0 1089076.0 6565.0
508821.0 1089328.0 6626.0
506148.0 1084991.0 6606.0
506006.0 1085151.0 6536.0
506011.0 1085436.0 6610.0
508633.0 1089117.0 6509.0
508999.0 1089389.0 6480.0
506248.0 1091883.0 6453.0
508819.0 1089074.0 6583.0
508378.0 1089162.0 6474.0
506411.0 1091494.0 6612.0
506416.0 1086305.0 6462.0
506123.0 1085616.0 6477.0
506148.0 1085111.0 6470.0
506311.0 1091801.0 6466.0
508433.0 1089301.0 6566.0
507597.0 1088889.0 6515.0
508744.0 1089207.0 6576.0
508954.0 1089039.0 6599.0
506307.0 1086619.0 6481.0
506170.0 1085658.0 6439.0
506101.0 1085161.0 6475.0
506064.0 1084741.0 6628.0
506122.0 1086222.0 6285.0
506249.0 1086203.0 6395.0
507661.0 1086826.0 6258.0
508261.0 1089062.0 6323.0
506057.0 1085782.0 6397.0
507762.0 1086777.0 6316.0
506263.0 1086272.0 6407.0
507566.0 1086897.0 6256.0
506703.0 1086809.0 6361.0
507870.0 1088642.0 6339.0
508565.0 1089048.0 6423.0
506337.0 1092036.0 6401.0
506164.0 1091976.0 6389.0
506189.0 1086040.0 6331.0
506032.0 1086126.0 6295.0
507998.0 1089168.0 6262.0
508347.0 1089077.0 6338.0
508505.0 1088942.0 6250.0
506311.0 1086408.0 6378.0
506152.0 1086182.0 6281.0
506526.0 1086188.0 6294.0
506149.0 1085889.0 6362.0
506212.0 1085491.0 6430.0
506122.0 1087369.0 6073.0
507125.0 1088848.0 6054.0
507616.0 1089115.0 6047.0
507911.0 1087030.0 6236.0
507874.0 1088832.0 6163.0
508051.0 1088971.0 6234.0
506168.0 1087255.0 6082.0
507966.0 1088903.0 6221.0
507962.0 1089047.0 6138.0
508008.0 1089243.0 6073.0
508061.0 1088967.0 6141.0
507815.0 1088885.0 6125.0
507983.0 1086898.0 6139.0
507552.0 1088698.0 6175.0
507110.0 1086797.0 6179.0
506895.0 1086802.0 6178.0
506243.0 1087353.0 6107.0
507922.0 1088920.0 6105.0
507529.0 1088703.0 6132.0
507881.0 1086876.0 6139.0
506305.0 1087305.0 5982.0
507689.0 1088570.0 5914.0
506574.0 1086775.0 5904.0
508297.0 1088426.0 5932.0
507574.0 1088723.0 5937.0
506822.0 1088506.0 5860.0
507604.0 1088943.0 5963.0
506351.0 1087361.0 5993.0
507101.0 1088528.0 5985.0
508051.0 1088794.0 5972.0
507644.0 1088586.0 5961.0
506482.0 1087885.0 5690.0
507060.0 1088368.0 5717.0
507300.0 1088222.0 5684.0
507520.0 1088031.0 5695.0
507440.0 1088555.0 5788.0
507545.0 1087896.0 5705.0
506761.0 1087756.0 5679.0
507584.0 1088235.0 5775.0
506501.0 1087789.0 5695.0
507283.0 1088248.0 5691.0
507199.0 1088484.0 5804.0
507735.0 1088415.0 5783.0
507426.0 1088127.0 5663.0
507119.0 1088013.0 5655.0
506856.0 1088232.0 5797.0
506860.0 1087758.0 5700.0
506506.0 1086930.0 5766.0
507738.0 1088448.0 5812.0
507289.0 1088228.0 5743.0
507868.0 1088343.0 5715.0
507449.0 1088132.0 5668.0
507039.0 1087920.0 5642.0
506487.0 1086602.0 5644.0
506966.0 1087698.0 5553.0
507124.0 1087808.0 5603.0
507348.0 1087653.0 5611.0
507147.0 1087627.0 5575.0
507211.0 1087916.0 5628.0
507521.0 1087994.0 5580.0
507142.0 1087774.0 5559.0
507369.0 1087713.0 5473.0
506884.0 1087022.0 5243.0
511265.0 1084514.0 5253.0
511458.0 1084356.0 5253.0
511686.0 1084108.0 5318.0
511795.0 1084108.0 5410.0
511614.0 1084231.0 5367.0
511170.0 1084680.0 5401.0
507153.0 1087169.0 5429.0
507102.0 1087235.0 5376.0
512163.0 1084063.0 5258.0
511949.0 1084100.0 5280.0
511400.0 1084260.0 5320.0
511009.0 1084661.0 5330.0
507367.0 1087577.0 5386.0
507077.0 1087486.0 5405.0
506807.0 1087227.0 5392.0
506971.0 1087470.0 5431.0
507257.0 1087435.0 5304.0
506886.0 1087207.0 5287.0
511064.0 1084552.0 5253.0
511223.0 1084424.0 5249.0
511433.0 1084295.0 5317.0
511809.0 1084194.0 5356.0
512163.0 1084157.0 5285.0
506496.0 1086818.0 5070.0
506977.0 1086484.0 5053.0
507161.0 1086641.0 5161.0
510833.0 1084707.0 5096.0
511300.0 1084441.0 5223.0
506852.0 1086837.0 5223.0
506780.0 1087178.0 5180.0
507262.0 1088657.0 5119.0
506980.0 1086878.0 5069.0
507061.0 1086397.0 5095.0
507151.0 1087177.0 5192.0
507195.0 1086581.0 5053.0
507665.0 1086484.0 4936.0
510175.0 1084331.0 4873.0
510653.0 1084648.0 4863.0
511364.0 1084104.0 4856.0
510390.0 1084079.0 4924.0
507356.0 1086355.0 4996.0
510078.0 1084108.0 4853.0
507568.0 1086338.0 4860.0
507322.0 1086464.0 4998.0
507225.0 1087010.0 5015.0
506334.0 1086607.0 4877.0
507106.0 1086777.0 4926.0
507110.0 1086312.0 4997.0
507345.0 1086159.0 4899.0
510526.0 1084907.0 4874.0
510598.0 1084665.0 4896.0
510172.0 1084236.0 4844.0
511753.0 1084051.0 5022.0
509796.0 1083455.0 4762.0
510030.0 1083635.0 4725.0
509976.0 1084242.0 4810.0
510238.0 1084905.0 4649.0
510475.0 1084453.0 4768.0
510454.0 1085042.0 4704.0
511205.0 1084134.0 4680.0
511472.0 1083888.0 4749.0
511374.0 1083892.0 4804.0
509675.0 1083493.0 4824.0
510043.0 1083748.0 4754.0
509893.0 1083845.0 4807.0
510746.0 1084330.0 4724.0
510082.0 1084228.0 4835.0
510505.0 1084450.0 4790.0
510165.0 1084538.0 4798.0
510544.0 1084785.0 4803.0
510392.0 1084962.0 4676.0
507826.0 1086433.0 4772.0
511415.0 1084189.0 4824.0
510636.0 1084334.0 4671.0
510487.0 1084581.0 4824.0
510197.0 1084821.0 4719.0
510276.0 1084349.0 4821.0
509873.0 1083740.0 4769.0
509717.0 1083773.0 4775.0
508116.0 1086424.0 4638.0
507960.0 1086422.0 4676.0
507788.0 1086142.0 4753.0
507718.0 1086399.0 4802.0
508019.0 1086269.0 4646.0
510102.0 1084721.0 4724.0
510549.0 1084464.0 4760.0
510687.0 1084377.0 4644.0
510295.0 1084130.0 4783.0
509874.0 1083907.0 4791.0
509707.0 1083592.0 4733.0
511264.0 1084158.0 4704.0
509738.0 1083374.0 4653.0
511327.0 1083978.0 4655.0
508316.0 1086247.0 4563.0
510027.0 1084870.0 4592.0
511050.0 1084124.0 4516.0
511071.0 1084058.0 4530.0
510926.0 1084108.0 4475.0
509865.0 1084876.0 4532.0
508413.0 1085701.0 4447.0
508342.0 1085943.0 4504.0
508100.0 1086223.0 4635.0
511072.0 1084168.0 4595.0
510852.0 1084224.0 4604.0
510031.0 1083582.0 4612.0
509323.0 1084733.0 4518.0
509121.0 1084862.0 4466.0
508858.0 1084974.0 4453.0
508463.0 1086340.0 4449.0
508272.0 1086210.0 4515.0
508322.0 1085637.0 4551.0
508695.0 1086364.0 4459.0
508315.0 1086137.0 4495.0
510032.0 1085115.0 4471.0
510885.0 1084261.0 4622.0
510087.0 1083604.0 4608.0
508464.0 1085643.0 4353.0
508704.0 1085843.0 4376.0
508983.0 1085153.0 4368.0
508958.0 1085699.0 4325.0
508885.0 1086255.0 4405.0
509149.0 1084984.0 4416.0
509172.0 1085592.0 4305.0
509407.0 1085444.0 4291.0
509648.0 1085324.0 4297.0
509880.0 1085274.0 4341.0
509832.0 1085106.0 4388.0
509023.0 1084930.0 4402.0
509462.0 1085169.0 4331.0
509110.0 1085285.0 4329.0
509529.0 1085494.0 4274.0
509018.0 1085474.0 4317.0
508705.0 1085529.0 4346.0
508839.0 1085893.0 4353.0
508754.0 1086138.0 4411.0
509793.0 1085138.0 4401.0
509510.0 1085376.0 4250.0
509386.0 1085267.0 4303.0
509188.0 1085254.0 4283.0
509004.0 1085421.0 4291.0
508700.0 1086001.0 4310.0
508753.0 1085504.0 4301.0
508492.0 1085780.0 4389.0
508617.0 1086103.0 4355.0
508501.0 1085880.0 4348.0
508711.0 1085905.0 4297.0
508747.0 1085788.0 4285.0
508809.0 1085614.0 4271.0
509334.0 1085548.0 4253.0
508916.0 1085316.0 4328.0
509775.0 1085383.0 4313.0
508993.0 1084958.0 4429.0
510843.0 1084076.0 4391.0
510915.0 1083988.0 4231.0
510799.0 1083887.0 4104.0
510792.0 1083816.0 3960.0
510878.0 1083654.0 3876.0
510885.0 1083297.0 3638.0
510785.0 1083272.0 3651.0
510821.0 1083514.0 3791.0
510614.0 1083231.0 3800.0
510815.0 1083536.0 3819.0
511034.0 1083517.0 3709.0
510646.0 1083262.0 3695.0
510707.0 1083199.0 3598.0
510790.0 1083121.0 3491.0
510816.0 1082965.0 3348.0
510921.0 1083095.0 3394.0
510900.0 1082898.0 3294.0
