555304.0 1116729.0 15723.0
555046.0 1116712.0 15660.0
555010.0 1115557.0 15728.0
555596.0 1112310.0 15666.0
554552.0 1113733.0 15809.0
553305.0 1114280.0 15686.0
557577.0 1127428.0 15724.0
558189.0 1126300.0 15718.0
556675.0 1125561.0 15782.0
556631.0 1125379.0 15832.0
556318.0 1125163.0 15792.0
560235.0 1126478.0 15763.0
557060.0 1124217.0 15781.0
560735.0 1125567.0 15677.0
560411.0 1125369.0 15781.0
559981.0 1125238.0 15652.0
559627.0 1125098.0 15642.0
561668.0 1125056.0 15811.0
561286.0 1124979.0 15645.0
559923.0 1123755.0 15825.0
559072.0 1122502.0 15712.0
557908.0 1121954.0 15816.0
559100.0 1122371.0 15643.0
558416.0 1121931.0 15752.0
558481.0 1121759.0 15785.0
559847.0 1122255.0 15827.0
558717.0 1121751.0 15810.0
565561.0 1124349.0 15751.0
566092.0 1124348.0 15657.0
561394.0 1122317.0 15770.0
566838.0 1123222.0 15837.0
552081.0 1115563.0 15734.0
551777.0 1115412.0 15797.0
552157.0 1115358.0 15685.0
557270.0 1117274.0 15696.0
555724.0 1116665.0 15678.0
556852.0 1116936.0 15700.0
556511.0 1116711.0 15831.0
556130.0 1116627.0 15754.0
557044.0 1116792.0 15724.0
556679.0 1116612.0 15808.0
559100.0 1116785.0 15777.0
558333.0 1116429.0 15818.0
553289.0 1114307.0 15718.0
559117.0 1116512.0 15717.0
558391.0 1116178.0 15688.0
558013.0 1115999.0 15760.0
557634.0 1115879.0 15679.0
554697.0 1114542.0 15795.0
558503.0 1115724.0 15693.0
556567.0 1114795.0 15740.0
554633.0 1113732.0 15752.0
553491.0 1113254.0 15723.0
555614.0 1111273.0 15786.0
552747.0 1115643.0 15526.0
554119.0 1114733.0 15501.0
554376.0 1114775.0 15597.0
554672.0 1115932.0 15575.0
555637.0 1118781.0 15502.0
556281.0 1122561.0 15454.0
555894.0 1115219.0 15629.0
556514.0 1122837.0 15462.0
556228.0 1117055.0 15611.0
557177.0 1127683.0 15446.0
557286.0 1127343.0 15526.0
557150.0 1121877.0 15441.0
556746.0 1112411.0 15483.0
557119.0 1117256.0 15534.0
557759.0 1124947.0 15471.0
556914.0 1112415.0 15453.0
557973.0 1124562.0 15492.0
558103.0 1124695.0 15635.0
558310.0 1126686.0 15538.0
558379.0 1123074.0 15561.0
558532.0 1122305.0 15443.0
559518.0 1126283.0 15473.0
559641.0 1125720.0 15483.0
559627.0 1123467.0 15516.0
559813.0 1125945.0 15563.0
559896.0 1123877.0 15462.0
560047.0 1126009.0 15538.0
560243.0 1125456.0 15572.0
560995.0 1124710.0 15534.0
561347.0 1124761.0 15526.0
561748.0 1124003.0 15470.0
563512.0 1125976.0 15503.0
564253.0 1125826.0 15485.0
567777.0 1122542.0 15480.0
566776.0 1121367.0 15594.0
567817.0 1122228.0 15553.0
567535.0 1122158.0 15477.0
555013.0 1113319.0 15492.0
567351.0 1123890.0 15458.0
553508.0 1113449.0 15631.0
555264.0 1114858.0 15592.0
555737.0 1115131.0 15526.0
565533.0 1123246.0 15516.0
565155.0 1123224.0 15635.0
566201.0 1123991.0 15629.0
566286.0 1124214.0 15463.0
553436.0 1114472.0 15549.0
557042.0 1117329.0 15612.0
554676.0 1115725.0 15586.0
554544.0 1115752.0 15510.0
555962.0 1116908.0 15542.0
556463.0 1117277.0 15484.0
566744.0 1125788.0 15459.0
554032.0 1115937.0 15552.0
552605.0 1115765.0 15478.0
553543.0 1116528.0 15492.0
552218.0 1115730.0 15455.0
555519.0 1118676.0 15525.0
560926.0 1123742.0 15476.0
559399.0 1122749.0 15613.0
557225.0 1121216.0 15563.0
559189.0 1122684.0 15521.0
560886.0 1124329.0 15631.0
561370.0 1124679.0 15498.0
557036.0 1121443.0 15459.0
559656.0 1123540.0 15573.0
560546.0 1124220.0 15496.0
561409.0 1124948.0 15497.0
557689.0 1122289.0 15506.0
561049.0 1125725.0 15449.0
560133.0 1125274.0 15466.0
560553.0 1125659.0 15629.0
560441.0 1125719.0 15455.0
556026.0 1122487.0 15495.0
556470.0 1122891.0 15505.0
559443.0 1125129.0 15439.0
559877.0 1125529.0 15529.0
556492.0 1123019.0 15520.0
559515.0 1125652.0 15441.0
556680.0 1123808.0 15486.0
559557.0 1126091.0 15569.0
557787.0 1125038.0 15610.0
559154.0 1126099.0 15528.0
555082.0 1123879.0 15439.0
557788.0 1126375.0 15527.0
566927.0 1125200.0 15545.0
567086.0 1122486.0 15478.0
566732.0 1123033.0 15564.0
566160.0 1124462.0 15579.0
565845.0 1123623.0 15519.0
565575.0 1124144.0 15558.0
565729.0 1123234.0 15456.0
565311.0 1123820.0 15515.0
565081.0 1123804.0 15439.0
565141.0 1123435.0 15618.0
561545.0 1125038.0 15459.0
561308.0 1125023.0 15484.0
560922.0 1125678.0 15543.0
560040.0 1126365.0 15619.0
559694.0 1126838.0 15581.0
559762.0 1126386.0 15581.0
559834.0 1125956.0 15560.0
560228.0 1123628.0 15499.0
559572.0 1126271.0 15610.0
559631.0 1125779.0 15496.0
559139.0 1125942.0 15488.0
559567.0 1123549.0 15449.0
558923.0 1126237.0 15601.0
558790.0 1125583.0 15474.0
558391.0 1126780.0 15482.0
558885.0 1122224.0 15517.0
557728.0 1126159.0 15585.0
558027.0 1124285.0 15493.0
558548.0 1121469.0 15603.0
559011.0 1116220.0 15610.0
558821.0 1115965.0 15589.0
558612.0 1115810.0 15612.0
557203.0 1120933.0 15522.0
556282.0 1122893.0 15505.0
557280.0 1117091.0 15505.0
557025.0 1117004.0 15604.0
557004.0 1112589.0 15506.0
556090.0 1116920.0 15627.0
555234.0 1118331.0 15553.0
555490.0 1116856.0 15532.0
555687.0 1112672.0 15476.0
555488.0 1112766.0 15596.0
552244.0 1115598.0 15540.0
552360.0 1115202.0 15587.0
556974.0 1127919.0 15563.0
559808.0 1126413.0 15459.0
559439.0 1126218.0 15630.0
556337.0 1124814.0 15636.0
559659.0 1126081.0 15478.0
556219.0 1123027.0 15566.0
555490.0 1122639.0 15628.0
555697.0 1122566.0 15491.0
555340.0 1122368.0 15607.0
563608.0 1125762.0 15461.0
561430.0 1124857.0 15491.0
561118.0 1124630.0 15627.0
558752.0 1123349.0 15637.0
559993.0 1123641.0 15518.0
557549.0 1122272.0 15487.0
556823.0 1121903.0 15449.0
559831.0 1123030.0 15450.0
559486.0 1122747.0 15589.0
558262.0 1122255.0 15574.0
567256.0 1125576.0 15536.0
557164.0 1121109.0 15528.0
565723.0 1124252.0 15567.0
555331.0 1119067.0 15494.0
555396.0 1118755.0 15502.0
557083.0 1118384.0 15493.0
567657.0 1122651.0 15504.0
552420.0 1115737.0 15556.0
555666.0 1116919.0 15458.0
556834.0 1117188.0 15517.0
557184.0 1117138.0 15498.0
555511.0 1115401.0 15451.0
557257.0 1115785.0 15552.0
559082.0 1116232.0 15592.0
558730.0 1116072.0 15541.0
558856.0 1115903.0 15497.0
555064.0 1113349.0 15509.0
557601.0 1113580.0 15536.0
556735.0 1111871.0 15450.0
552459.0 1115639.0 15428.0
552627.0 1115633.0 15436.0
553009.0 1115158.0 15316.0
553348.0 1113054.0 15380.0
553430.0 1115061.0 15390.0
553545.0 1114993.0 15339.0
553495.0 1112676.0 15335.0
553813.0 1116615.0 15402.0
554315.0 1122810.0 15338.0
553691.0 1113079.0 15414.0
554020.0 1116565.0 15389.0
554451.0 1122654.0 15339.0
555658.0 1123332.0 15311.0
555500.0 1118231.0 15418.0
555700.0 1118046.0 15327.0
555878.0 1117004.0 15417.0
556001.0 1118579.0 15318.0
555813.0 1113110.0 15326.0
556198.0 1117326.0 15279.0
556749.0 1124150.0 15241.0
556622.0 1120901.0 15412.0
556688.0 1121684.0 15363.0
557094.0 1127641.0 15263.0
557141.0 1125380.0 15245.0
556910.0 1121202.0 15372.0
556977.0 1121904.0 15258.0
556997.0 1121576.0 15349.0
556897.0 1117873.0 15249.0
556758.0 1114596.0 15339.0
557092.0 1118093.0 15319.0
557412.0 1122286.0 15335.0
557252.0 1118073.0 15347.0
557097.0 1113184.0 15241.0
557462.0 1115649.0 15408.0
558068.0 1122595.0 15341.0
558228.0 1124030.0 15347.0
557439.0 1113141.0 15305.0
558476.0 1122305.0 15269.0
559179.0 1125957.0 15403.0
559321.0 1125227.0 15301.0
559333.0 1125902.0 15428.0
559356.0 1123994.0 15361.0
559473.0 1125528.0 15388.0
559603.0 1124114.0 15276.0
560092.0 1125279.0 15297.0
561393.0 1123916.0 15259.0
565154.0 1123261.0 15393.0
565718.0 1123698.0 15254.0
566183.0 1124112.0 15317.0
566294.0 1124958.0 15436.0
566684.0 1125940.0 15290.0
567123.0 1124050.0 15307.0
567191.0 1124068.0 15333.0
567619.0 1125157.0 15337.0
567440.0 1122147.0 15262.0
567602.0 1122491.0 15314.0
567609.0 1122353.0 15385.0
567680.0 1121608.0 15287.0
567397.0 1120375.0 15278.0
557845.0 1112392.0 15255.0
567472.0 1121302.0 15274.0
567387.0 1121695.0 15258.0
566659.0 1121570.0 15354.0
567548.0 1122347.0 15327.0
566565.0 1121624.0 15383.0
567592.0 1122483.0 15340.0
568074.0 1123157.0 15247.0
555697.0 1113092.0 15392.0
555596.0 1113172.0 15355.0
555248.0 1113120.0 15341.0
567178.0 1122970.0 15381.0
555287.0 1113245.0 15290.0
567764.0 1123642.0 15355.0
553900.0 1112881.0 15395.0
557052.0 1115295.0 15344.0
569674.0 1125795.0 15267.0
554335.0 1113696.0 15389.0
554047.0 1113722.0 15242.0
567434.0 1124718.0 15406.0
565385.0 1123440.0 15289.0
565849.0 1123815.0 15276.0
565177.0 1123395.0 15405.0
565638.0 1123773.0 15375.0
566997.0 1124969.0 15305.0
568151.0 1126364.0 15259.0
553443.0 1114593.0 15312.0
556964.0 1117635.0 15367.0
553579.0 1115105.0 15310.0
554523.0 1115870.0 15389.0
555781.0 1116899.0 15339.0
556239.0 1117249.0 15370.0
556716.0 1117577.0 15257.0
557138.0 1117949.0 15306.0
553245.0 1114992.0 15283.0
556267.0 1117373.0 15271.0
557128.0 1118079.0 15344.0
553141.0 1115108.0 15240.0
555008.0 1116583.0 15376.0
556945.0 1118085.0 15316.0
552818.0 1115237.0 15401.0
555882.0 1118002.0 15333.0
555535.0 1118004.0 15263.0
555983.0 1118384.0 15305.0
555859.0 1118524.0 15328.0
555709.0 1118545.0 15292.0
564307.0 1125654.0 15257.0
555568.0 1118828.0 15318.0
561303.0 1123509.0 15396.0
561200.0 1123552.0 15322.0
562058.0 1124243.0 15252.0
560964.0 1123592.0 15408.0
561248.0 1124034.0 15252.0
561692.0 1124393.0 15267.0
563459.0 1125880.0 15336.0
561668.0 1124645.0 15401.0
556912.0 1121035.0 15374.0
558415.0 1122425.0 15259.0
561041.0 1124489.0 15300.0
559196.0 1123354.0 15276.0
561106.0 1124815.0 15303.0
556481.0 1121528.0 15405.0
556115.0 1122053.0 15262.0
559572.0 1125046.0 15326.0
560389.0 1125861.0 15437.0
559620.0 1125442.0 15410.0
557648.0 1124536.0 15370.0
554393.0 1122592.0 15347.0
558714.0 1126138.0 15352.0
559663.0 1126834.0 15395.0
554343.0 1122774.0 15278.0
556493.0 1124551.0 15419.0
557417.0 1125189.0 15251.0
559680.0 1126926.0 15309.0
557034.0 1125271.0 15299.0
554965.0 1124315.0 15387.0
556386.0 1125340.0 15270.0
557451.0 1126912.0 15390.0
557119.0 1127629.0 15371.0
568966.0 1125830.0 15281.0
567560.0 1125665.0 15286.0
567697.0 1124750.0 15255.0
567363.0 1125613.0 15398.0
567014.0 1123727.0 15258.0
566573.0 1125003.0 15396.0
563150.0 1126177.0 15254.0
563404.0 1124811.0 15342.0
561120.0 1124391.0 15429.0
561156.0 1123909.0 15240.0
560948.0 1123526.0 15342.0
560394.0 1125012.0 15249.0
560675.0 1123602.0 15421.0
560403.0 1123668.0 15352.0
559838.0 1125458.0 15433.0
559282.0 1125547.0 15275.0
559134.0 1125425.0 15271.0
558931.0 1125729.0 15397.0
558968.0 1125239.0 15295.0
558659.0 1126000.0 15355.0
557320.0 1125148.0 15246.0
557861.0 1122416.0 15423.0
556999.0 1125873.0 15245.0
557617.0 1122485.0 15365.0
557554.0 1121054.0 15331.0
556646.0 1125594.0 15351.0
556897.0 1121192.0 15416.0
556484.0 1121537.0 15308.0
557041.0 1117965.0 15240.0
557117.0 1115559.0 15285.0
556554.0 1117427.0 15279.0
556112.0 1117293.0 15334.0
556890.0 1113056.0 15325.0
555906.0 1117352.0 15240.0
556735.0 1112647.0 15361.0
555325.0 1119140.0 15285.0
555414.0 1118677.0 15388.0
555693.0 1116927.0 15406.0
555763.0 1115041.0 15408.0
555706.0 1113315.0 15284.0
555821.0 1112878.0 15319.0
555308.0 1113209.0 15414.0
553642.0 1112812.0 15251.0
553467.0 1112899.0 15375.0
552428.0 1115661.0 15436.0
560351.0 1125175.0 15359.0
554414.0 1122581.0 15338.0
563195.0 1126199.0 15250.0
559337.0 1124533.0 15261.0
556785.0 1123096.0 15372.0
556431.0 1122928.0 15327.0
556054.0 1122778.0 15311.0
561779.0 1124837.0 15247.0
561066.0 1124435.0 15384.0
560644.0 1124304.0 15304.0
555587.0 1122096.0 15245.0
561095.0 1124218.0 15311.0
559628.0 1123552.0 15432.0
560859.0 1123784.0 15338.0
556384.0 1121835.0 15269.0
560977.0 1123548.0 15319.0
558615.0 1122512.0 15431.0
557016.0 1121881.0 15267.0
556332.0 1121464.0 15399.0
559404.0 1122638.0 15340.0
567522.0 1125594.0 15355.0
567156.0 1125492.0 15301.0
557324.0 1121027.0 15380.0
567687.0 1124830.0 15300.0
566191.0 1124195.0 15387.0
565421.0 1123881.0 15348.0
565081.0 1123708.0 15292.0
555495.0 1118615.0 15251.0
567282.0 1122527.0 15415.0
566230.0 1122049.0 15332.0
556961.0 1118159.0 15272.0
557206.0 1118033.0 15246.0
556120.0 1117460.0 15275.0
566437.0 1121651.0 15256.0
556753.0 1117532.0 15252.0
556021.0 1117135.0 15434.0
552477.0 1115547.0 15409.0
552643.0 1115393.0 15355.0
553487.0 1115335.0 15348.0
553707.0 1115240.0 15268.0
553345.0 1115099.0 15306.0
555709.0 1115157.0 15262.0
553716.0 1113721.0 15367.0
556439.0 1114716.0 15313.0
553329.0 1112924.0 15299.0
553542.0 1112761.0 15258.0
555342.0 1113303.0 15332.0
553786.0 1112622.0 15282.0
555496.0 1113033.0 15427.0
555745.0 1112855.0 15360.0
556949.0 1113080.0 15325.0
556580.0 1112660.0 15326.0
557892.0 1112638.0 15343.0
556823.0 1112175.0 15390.0
553310.0 1115341.0 15049.0
553300.0 1112955.0 15161.0
553861.0 1113719.0 15190.0
554895.0 1123781.0 15208.0
554988.0 1125225.0 15072.0
555102.0 1122607.0 15106.0
555040.0 1116122.0 15082.0
555362.0 1117857.0 15128.0
555157.0 1113286.0 15159.0
555522.0 1117550.0 15062.0
555846.0 1121678.0 15038.0
555339.0 1113314.0 15220.0
555715.0 1117261.0 15122.0
556031.0 1121847.0 15167.0
556327.0 1121753.0 15164.0
556058.0 1113150.0 15104.0
556495.0 1117853.0 15043.0
556830.0 1122441.0 15118.0
556540.0 1117554.0 15198.0
556851.0 1120731.0 15155.0
556932.0 1121520.0 15055.0
557189.0 1126124.0 15230.0
556689.0 1117753.0 15174.0
557275.0 1125267.0 15055.0
556751.0 1117703.0 15213.0
557327.0 1125382.0 15194.0
557453.0 1126880.0 15205.0
557474.0 1125041.0 15198.0
557784.0 1126402.0 15075.0
557694.0 1122688.0 15226.0
557979.0 1122975.0 15105.0
557288.0 1112815.0 15165.0
558782.0 1126196.0 15143.0
558741.0 1123003.0 15040.0
558948.0 1125749.0 15066.0
559030.0 1125091.0 15166.0
559061.0 1125836.0 15199.0
559183.0 1125131.0 15227.0
559827.0 1124280.0 15164.0
559952.0 1125066.0 15040.0
560110.0 1124566.0 15064.0
561583.0 1123880.0 15213.0
561768.0 1124031.0 15071.0
561943.0 1124758.0 15143.0
563591.0 1124472.0 15133.0
564190.0 1125919.0 15128.0
565536.0 1123569.0 15199.0
566289.0 1122019.0 15202.0
566733.0 1121755.0 15093.0
567437.0 1126636.0 15096.0
566714.0 1119319.0 15042.0
567210.0 1120272.0 15050.0
567378.0 1121209.0 15106.0
567946.0 1125839.0 15088.0
567467.0 1120922.0 15075.0
568056.0 1126472.0 15228.0
567652.0 1121426.0 15085.0
567594.0 1120692.0 15132.0
569123.0 1124954.0 15183.0
569562.0 1125930.0 15117.0
569962.0 1124562.0 15144.0
566621.0 1119190.0 15083.0
568111.0 1120777.0 15157.0
567228.0 1120285.0 15058.0
557709.0 1112652.0 15083.0
567463.0 1121474.0 15161.0
567120.0 1121660.0 15122.0
569660.0 1124257.0 15054.0
556069.0 1113003.0 15090.0
555750.0 1113366.0 15140.0
568711.0 1124355.0 15206.0
555515.0 1113542.0 15163.0
566523.0 1123060.0 15224.0
569079.0 1125425.0 15083.0
569552.0 1125860.0 15134.0
554038.0 1113816.0 15039.0
554978.0 1114915.0 15190.0
566117.0 1124128.0 15140.0
567521.0 1125231.0 15054.0
565150.0 1123457.0 15161.0
553995.0 1114724.0 15161.0
566341.0 1124720.0 15053.0
566814.0 1125156.0 15165.0
556976.0 1117355.0 15213.0
553651.0 1114937.0 15199.0
567966.0 1126477.0 15079.0
555821.0 1117024.0 15178.0
556723.0 1117698.0 15216.0
555949.0 1117287.0 15116.0
556457.0 1117679.0 15154.0
566735.0 1126014.0 15154.0
555574.0 1117238.0 15054.0
555949.0 1117610.0 15214.0
556443.0 1117916.0 15076.0
556883.0 1118296.0 15234.0
567381.0 1126802.0 15082.0
554717.0 1118026.0 15045.0
564127.0 1125597.0 15062.0
555552.0 1118939.0 15055.0
561657.0 1123872.0 15220.0
561500.0 1123934.0 15235.0
561468.0 1124013.0 15197.0
561876.0 1124416.0 15187.0
563269.0 1125670.0 15054.0
560131.0 1124112.0 15237.0
560651.0 1124438.0 15155.0
560077.0 1124262.0 15195.0
557793.0 1122733.0 15200.0
559520.0 1124119.0 15156.0
559675.0 1124508.0 15170.0
560162.0 1124936.0 15211.0
556614.0 1122345.0 15143.0
557057.0 1122704.0 15117.0
559716.0 1124855.0 15209.0
556978.0 1122913.0 15043.0
560121.0 1125236.0 15112.0
558995.0 1124670.0 15112.0
559218.0 1125000.0 15174.0
559132.0 1125239.0 15227.0
554913.0 1122333.0 15201.0
555357.0 1122619.0 15039.0
555791.0 1122986.0 15224.0
559142.0 1125572.0 15222.0
554779.0 1122544.0 15204.0
555646.0 1123187.0 15186.0
554849.0 1122811.0 15043.0
557443.0 1124838.0 15115.0
554412.0 1122740.0 15224.0
557365.0 1125260.0 15170.0
557240.0 1125638.0 15221.0
558233.0 1126588.0 15229.0
555464.0 1124605.0 15107.0
557794.0 1126402.0 15092.0
555291.0 1124616.0 15063.0
555111.0 1124963.0 15040.0
556947.0 1127759.0 15095.0
569399.0 1125978.0 15080.0
569180.0 1125674.0 15043.0
569031.0 1124924.0 15050.0
568007.0 1126404.0 15066.0
568090.0 1123719.0 15046.0
567556.0 1125208.0 15039.0
567460.0 1124781.0 15151.0
566642.0 1125645.0 15061.0
567272.0 1122367.0 15066.0
566803.0 1121618.0 15064.0
565953.0 1124852.0 15143.0
566970.0 1119350.0 15083.0
566274.0 1121896.0 15141.0
566330.0 1120361.0 15155.0
566570.0 1119501.0 15097.0
565934.0 1121379.0 15089.0
566138.0 1120401.0 15137.0
565273.0 1123391.0 15211.0
563161.0 1125775.0 15094.0
561814.0 1124380.0 15054.0
561565.0 1124563.0 15057.0
561609.0 1124129.0 15068.0
561329.0 1124502.0 15174.0
561393.0 1124036.0 15154.0
561452.0 1123586.0 15134.0
560719.0 1124427.0 15195.0
560718.0 1123940.0 15070.0
560124.0 1125000.0 15228.0
560124.0 1124590.0 15079.0
559928.0 1124540.0 15099.0
559768.0 1124278.0 15201.0
559482.0 1124213.0 15089.0
558996.0 1124726.0 15086.0
559183.0 1123299.0 15087.0
559309.0 1122861.0 15214.0
559446.0 1121866.0 15067.0
558818.0 1124635.0 15078.0
559170.0 1122872.0 15237.0
558618.0 1124380.0 15055.0
558853.0 1122996.0 15064.0
558127.0 1122864.0 15187.0
557208.0 1125636.0 15192.0
556764.0 1127368.0 15071.0
556751.0 1124245.0 15098.0
556503.0 1124664.0 15155.0
557298.0 1117807.0 15170.0
557426.0 1116869.0 15062.0
557096.0 1117520.0 15209.0
556165.0 1121255.0 15075.0
556738.0 1117902.0 15214.0
556794.0 1117444.0 15219.0
556406.0 1117883.0 15119.0
556885.0 1115475.0 15163.0
557219.0 1113570.0 15169.0
557337.0 1112640.0 15079.0
556222.0 1117630.0 15159.0
557177.0 1112284.0 15126.0
555787.0 1118668.0 15081.0
556040.0 1117723.0 15203.0
555594.0 1118785.0 15234.0
555632.0 1118312.0 15077.0
555378.0 1118202.0 15139.0
556240.0 1113341.0 15122.0
555214.0 1117852.0 15160.0
555714.0 1114552.0 15046.0
555993.0 1113107.0 15154.0
555463.0 1114837.0 15203.0
554872.0 1115029.0 15082.0
554104.0 1116298.0 15204.0
553560.0 1114635.0 15157.0
553579.0 1113291.0 15155.0
557053.0 1127641.0 15210.0
556725.0 1127520.0 15125.0
558074.0 1126820.0 15085.0
559301.0 1125461.0 15221.0
555511.0 1123089.0 15108.0
555116.0 1122943.0 15042.0
554735.0 1122754.0 15091.0
560422.0 1125067.0 15197.0
560041.0 1124895.0 15157.0
554973.0 1122658.0 15128.0
554613.0 1122483.0 15123.0
563084.0 1125932.0 15164.0
554895.0 1122372.0 15077.0
567204.0 1127133.0 15048.0
561436.0 1124652.0 15186.0
557101.0 1122828.0 15086.0
556724.0 1122626.0 15149.0
556331.0 1122445.0 15169.0
561788.0 1124647.0 15047.0
559258.0 1123439.0 15160.0
556620.0 1122281.0 15189.0
555855.0 1121980.0 15114.0
567464.0 1126720.0 15057.0
561548.0 1124182.0 15107.0
561210.0 1123994.0 15225.0
557885.0 1122553.0 15214.0
567959.0 1126512.0 15221.0
566490.0 1125882.0 15171.0
561353.0 1123768.0 15182.0
560569.0 1123445.0 15085.0
560187.0 1123275.0 15047.0
561300.0 1123480.0 15219.0
566843.0 1125584.0 15076.0
567647.0 1125546.0 15069.0
567289.0 1125364.0 15195.0
565776.0 1124091.0 15194.0
555704.0 1119005.0 15158.0
569818.0 1124751.0 15181.0
567495.0 1123813.0 15099.0
566788.0 1123486.0 15068.0
567593.0 1123637.0 15072.0
555628.0 1118281.0 15101.0
556558.0 1118057.0 15170.0
567433.0 1122370.0 15196.0
556852.0 1117858.0 15219.0
557124.0 1117747.0 15203.0
556346.0 1117437.0 15211.0
567486.0 1121630.0 15225.0
567773.0 1121547.0 15085.0
567423.0 1121376.0 15212.0
555761.0 1116523.0 15088.0
554014.0 1115191.0 15147.0
553653.0 1115009.0 15150.0
553574.0 1114657.0 15112.0
554937.0 1114921.0 15236.0
566644.0 1119321.0 15123.0
556432.0 1114573.0 15050.0
553677.0 1113079.0 15196.0
553840.0 1112930.0 15226.0
555852.0 1113292.0 15154.0
557203.0 1113526.0 15166.0
557798.0 1112421.0 15050.0
553005.0 1113569.0 14996.0
553417.0 1114894.0 15037.0
553549.0 1115260.0 15036.0
553950.0 1117254.0 14893.0
553845.0 1114969.0 14962.0
554040.0 1115106.0 14950.0
554193.0 1113146.0 14973.0
554254.0 1113906.0 14922.0
554524.0 1113948.0 14969.0
554814.0 1117163.0 14839.0
554882.0 1117916.0 14918.0
555346.0 1124891.0 14932.0
555105.0 1117995.0 14899.0
555395.0 1122773.0 15029.0
555566.0 1124765.0 14929.0
555263.0 1117651.0 14899.0
555877.0 1124872.0 14984.0
556124.0 1114511.0 14907.0
557016.0 1127465.0 14949.0
556312.0 1113414.0 14889.0
557034.0 1123096.0 15003.0
557370.0 1126912.0 14844.0
556368.0 1113454.0 14960.0
556836.0 1118420.0 14945.0
557229.0 1123262.0 14845.0
556440.0 1112943.0 14973.0
557299.0 1123083.0 14884.0
556529.0 1112885.0 15032.0
556679.0 1113697.0 14847.0
557669.0 1126561.0 14857.0
556973.0 1113263.0 15014.0
557278.0 1112080.0 14963.0
558395.0 1122624.0 14952.0
558545.0 1124151.0 14921.0
558745.0 1124581.0 14947.0
558831.0 1124396.0 15035.0
559580.0 1124722.0 14941.0
559863.0 1124879.0 14855.0
560526.0 1126232.0 14875.0
563566.0 1125204.0 15012.0
563832.0 1126831.0 14865.0
564678.0 1121411.0 14879.0
565031.0 1123174.0 14920.0
565421.0 1125278.0 14860.0
565596.0 1123864.0 14857.0
566057.0 1124062.0 15006.0
566195.0 1124886.0 14997.0
567175.0 1126964.0 14981.0
566635.0 1120797.0 14954.0
567159.0 1124494.0 14843.0
566948.0 1121922.0 14892.0
567317.0 1125014.0 14883.0
566746.0 1119564.0 14840.0
567510.0 1126689.0 15030.0
566901.0 1120246.0 14846.0
567141.0 1122113.0 14885.0
567465.0 1125862.0 15011.0
567638.0 1126779.0 14936.0
566897.0 1119476.0 14871.0
567019.0 1120258.0 14864.0
567157.0 1121845.0 15000.0
567185.0 1120650.0 14976.0
567858.0 1126027.0 14868.0
567929.0 1121256.0 14932.0
568224.0 1123682.0 14854.0
568341.0 1123783.0 14981.0
568176.0 1120916.0 14856.0
568689.0 1124762.0 14870.0
568813.0 1125627.0 14845.0
568268.0 1120939.0 15007.0
568849.0 1124961.0 14950.0
569016.0 1125076.0 14985.0
570216.0 1124665.0 14895.0
567081.0 1119208.0 14884.0
566783.0 1119566.0 15018.0
567998.0 1120709.0 14966.0
566826.0 1119793.0 14873.0
568201.0 1121012.0 14894.0
566835.0 1119940.0 14880.0
567251.0 1120342.0 14920.0
567318.0 1120659.0 14975.0
567848.0 1121067.0 14926.0
557557.0 1113038.0 14902.0
566622.0 1120623.0 14982.0
557234.0 1113524.0 15011.0
557101.0 1113567.0 14942.0
554236.0 1111505.0 14938.0
566284.0 1121429.0 14952.0
566782.0 1121819.0 14936.0
567249.0 1122230.0 14934.0
556288.0 1113330.0 14876.0
566177.0 1121547.0 14923.0
566622.0 1121924.0 14936.0
566148.0 1121713.0 14986.0
566368.0 1122012.0 14917.0
555808.0 1113518.0 14955.0
566082.0 1121949.0 14985.0
555111.0 1113074.0 14844.0
564780.0 1121269.0 15005.0
567569.0 1123596.0 14937.0
568884.0 1124945.0 14964.0
569201.0 1125684.0 14858.0
557438.0 1116479.0 14882.0
567322.0 1124680.0 15029.0
553722.0 1113754.0 14882.0
567307.0 1124865.0 14868.0
555004.0 1115000.0 14967.0
552977.0 1113546.0 14854.0
554823.0 1115024.0 15011.0
554986.0 1115353.0 14885.0
557179.0 1117103.0 14844.0
553924.0 1114823.0 14873.0
566043.0 1124603.0 14986.0
567836.0 1126074.0 14881.0
556085.0 1116718.0 14876.0
566037.0 1124794.0 14976.0
567309.0 1126067.0 14894.0
554967.0 1116231.0 14921.0
555550.0 1116823.0 14841.0
565574.0 1125215.0 14885.0
565312.0 1125338.0 14844.0
567118.0 1126865.0 14904.0
554646.0 1117149.0 14865.0
555067.0 1117695.0 14860.0
554725.0 1117710.0 14856.0
555339.0 1118870.0 14986.0
560585.0 1123100.0 14886.0
564041.0 1125810.0 14851.0
564501.0 1126213.0 14976.0
560584.0 1123207.0 14967.0
564242.0 1126151.0 14870.0
558338.0 1122738.0 14851.0
563735.0 1127074.0 14946.0
559130.0 1123701.0 14977.0
559984.0 1124411.0 14966.0
555877.0 1121465.0 15003.0
556365.0 1121776.0 15030.0
557810.0 1122943.0 14882.0
555752.0 1121621.0 14998.0
557112.0 1123057.0 14928.0
557085.0 1123208.0 14895.0
558799.0 1124587.0 14978.0
560492.0 1126188.0 14881.0
560612.0 1126568.0 14855.0
557081.0 1124115.0 14914.0
554960.0 1122989.0 14865.0
557369.0 1124888.0 14996.0
555966.0 1124909.0 14965.0
556916.0 1125618.0 14902.0
555755.0 1124884.0 14930.0
555211.0 1125386.0 15014.0
557866.0 1127335.0 14881.0
557354.0 1127264.0 14908.0
556936.0 1127541.0 15001.0
569627.0 1125911.0 14867.0
568652.0 1125101.0 14893.0
568713.0 1124665.0 14922.0
568527.0 1124599.0 14945.0
567859.0 1125842.0 14903.0
567635.0 1123485.0 14996.0
567999.0 1121308.0 14905.0
568075.0 1120903.0 14912.0
566801.0 1126056.0 14896.0
567772.0 1121138.0 14935.0
567887.0 1120708.0 15017.0
566695.0 1125137.0 14898.0
567228.0 1120740.0 14855.0
566034.0 1125659.0 14992.0
567138.0 1119339.0 14851.0
565980.0 1123892.0 14916.0
566316.0 1122505.0 14907.0
566387.0 1122056.0 14913.0
566612.0 1120698.0 14871.0
566441.0 1120627.0 14906.0
566511.0 1120207.0 14902.0
566588.0 1119740.0 14840.0
566724.0 1119328.0 14927.0
565986.0 1121770.0 14884.0
566116.0 1121324.0 14935.0
566151.0 1119913.0 14870.0
563279.0 1126382.0 14924.0
561662.0 1123700.0 15018.0
561075.0 1125484.0 15011.0
560800.0 1125214.0 14972.0
560251.0 1126700.0 14899.0
560383.0 1125787.0 14870.0
560317.0 1123221.0 14912.0
560082.0 1123101.0 14865.0
559569.0 1124764.0 14955.0
559259.0 1125071.0 14915.0
559094.0 1124903.0 14914.0
559256.0 1124000.0 15000.0
559059.0 1123746.0 14883.0
558446.0 1126400.0 15008.0
558822.0 1124169.0 14931.0
558953.0 1123309.0 14916.0
558294.0 1126296.0 14963.0
558574.0 1122602.0 14841.0
556417.0 1121097.0 14915.0
557114.0 1117066.0 14960.0
556873.0 1116422.0 14849.0
556974.0 1115956.0 14883.0
557559.0 1112707.0 14970.0
557193.0 1113097.0 14952.0
557400.0 1112159.0 14981.0
557436.0 1111672.0 14950.0
556839.0 1113622.0 14880.0
555841.0 1118214.0 14856.0
556661.0 1113483.0 14874.0
555467.0 1119264.0 14957.0
556294.0 1114510.0 14936.0
555449.0 1117290.0 14906.0
555825.0 1113582.0 14890.0
554833.0 1117632.0 14861.0
555865.0 1111935.0 14978.0
554898.0 1116181.0 14964.0
553979.0 1113746.0 14949.0
553971.0 1111822.0 14937.0
553704.0 1111847.0 14893.0
556724.0 1127355.0 14945.0
562190.0 1127471.0 14849.0
563630.0 1127146.0 14952.0
561171.0 1125465.0 14898.0
559639.0 1124782.0 15024.0
558882.0 1124442.0 15024.0
555746.0 1123024.0 15013.0
558628.0 1124080.0 14925.0
563145.0 1125872.0 14862.0
556953.0 1122526.0 14980.0
556229.0 1122172.0 15023.0
555070.0 1121739.0 14869.0
565216.0 1125472.0 14901.0
561719.0 1124006.0 14957.0
557820.0 1122294.0 14975.0
563517.0 1124536.0 14892.0
566661.0 1125490.0 14845.0
556596.0 1121125.0 14884.0
566873.0 1125303.0 14923.0
565818.0 1124831.0 14945.0
569600.0 1126128.0 14871.0
568156.0 1125558.0 14936.0
567100.0 1125115.0 14888.0
559382.0 1121873.0 14864.0
568829.0 1125453.0 14890.0
568668.0 1124617.0 15022.0
567136.0 1123705.0 14951.0
555720.0 1118607.0 14958.0
567714.0 1123488.0 15033.0
568026.0 1123387.0 14880.0
566871.0 1122873.0 14945.0
565817.0 1122043.0 14913.0
566342.0 1121985.0 15010.0
567569.0 1122252.0 14961.0
567197.0 1122137.0 14843.0
566025.0 1121638.0 14884.0
566311.0 1121292.0 14881.0
567731.0 1121335.0 15017.0
567308.0 1121224.0 14841.0
566380.0 1120532.0 14955.0
566403.0 1119865.0 14930.0
566710.0 1119685.0 14881.0
566944.0 1119537.0 14867.0
552877.0 1113539.0 14905.0
553783.0 1113747.0 14860.0
553849.0 1113469.0 14982.0
553988.0 1113290.0 15006.0
555647.0 1113519.0 15029.0
557029.0 1113808.0 14990.0
556741.0 1113531.0 14845.0
553769.0 1112133.0 14986.0
557248.0 1113126.0 14892.0
554169.0 1111784.0 14897.0
557356.0 1112875.0 14972.0
555519.0 1112045.0 14914.0
557505.0 1112611.0 15013.0
557395.0 1111691.0 15015.0
551982.0 1115208.0 14753.0
552429.0 1114430.0 14710.0
553509.0 1113750.0 14733.0
553893.0 1117121.0 14700.0
554426.0 1124059.0 14714.0
554716.0 1123914.0 14765.0
554129.0 1111545.0 14714.0
554347.0 1111514.0 14818.0
554840.0 1116354.0 14716.0
555232.0 1121865.0 14722.0
555235.0 1123330.0 14821.0
554623.0 1111712.0 14708.0
554808.0 1113118.0 14748.0
555019.0 1115933.0 14719.0
555129.0 1117312.0 14721.0
555177.0 1113804.0 14683.0
555413.0 1117018.0 14738.0
555473.0 1118674.0 14833.0
555772.0 1118918.0 14653.0
556864.0 1127136.0 14645.0
556170.0 1112350.0 14669.0
556429.0 1115545.0 14668.0
557265.0 1126905.0 14696.0
556258.0 1112579.0 14809.0
556487.0 1114222.0 14682.0
557279.0 1123862.0 14660.0
556342.0 1112072.0 14722.0
556546.0 1114191.0 14646.0
556654.0 1115609.0 14784.0
557325.0 1123929.0 14654.0
557491.0 1126615.0 14699.0
556398.0 1112116.0 14796.0
556567.0 1113729.0 14782.0
557771.0 1127333.0 14766.0
557096.0 1116009.0 14728.0
557641.0 1122965.0 14824.0
557369.0 1116447.0 14778.0
557553.0 1116488.0 14730.0
558616.0 1121435.0 14677.0
559111.0 1126431.0 14728.0
558850.0 1121220.0 14687.0
559296.0 1126583.0 14764.0
560321.0 1126684.0 14794.0
560331.0 1123024.0 14762.0
560559.0 1122863.0 14641.0
562040.0 1124713.0 14726.0
563589.0 1126919.0 14788.0
563462.0 1124652.0 14713.0
563704.0 1126885.0 14834.0
563836.0 1125984.0 14639.0
563960.0 1126209.0 14804.0
564114.0 1126133.0 14774.0
564901.0 1126438.0 14647.0
564580.0 1121497.0 14738.0
565143.0 1126857.0 14654.0
565858.0 1126458.0 14823.0
565755.0 1123513.0 14679.0
566081.0 1125171.0 14757.0
566410.0 1125794.0 14675.0
566102.0 1121318.0 14806.0
566589.0 1125858.0 14837.0
566783.0 1125144.0 14687.0
566527.0 1120844.0 14765.0
566997.0 1124360.0 14671.0
566566.0 1118983.0 14685.0
566650.0 1119878.0 14766.0
567069.0 1123575.0 14713.0
567367.0 1126317.0 14780.0
566709.0 1119559.0 14801.0
566786.0 1120349.0 14817.0
567120.0 1122205.0 14788.0
567401.0 1124958.0 14803.0
567170.0 1121051.0 14688.0
567454.0 1123479.0 14719.0
567747.0 1125815.0 14687.0
567660.0 1120513.0 14688.0
568018.0 1123241.0 14716.0
568342.0 1125383.0 14835.0
568174.0 1122904.0 14714.0
568112.0 1120955.0 14693.0
568296.0 1122841.0 14756.0
568422.0 1122804.0 14821.0
568821.0 1122331.0 14712.0
569239.0 1125966.0 14774.0
568921.0 1122125.0 14790.0
569752.0 1124622.0 14803.0
569366.0 1119790.0 14777.0
569979.0 1124637.0 14801.0
570543.0 1125386.0 14656.0
570571.0 1124770.0 14678.0
568120.0 1118727.0 14757.0
567315.0 1118635.0 14693.0
566491.0 1119058.0 14689.0
567767.0 1120650.0 14788.0
568237.0 1121081.0 14778.0
566868.0 1120164.0 14797.0
566688.0 1120317.0 14789.0
556324.0 1111922.0 14688.0
567147.0 1120979.0 14678.0
566464.0 1120700.0 14804.0
567217.0 1121758.0 14786.0
567169.0 1121934.0 14750.0
568208.0 1122769.0 14744.0
553871.0 1111097.0 14773.0
567756.0 1122605.0 14782.0
553674.0 1111120.0 14658.0
554060.0 1111499.0 14757.0
567169.0 1122250.0 14762.0
569911.0 1124629.0 14678.0
553660.0 1111464.0 14705.0
568222.0 1123636.0 14821.0
568347.0 1123841.0 14813.0
568107.0 1123691.0 14650.0
569604.0 1124987.0 14658.0
555146.0 1113333.0 14810.0
565782.0 1121915.0 14678.0
569465.0 1125089.0 14655.0
555410.0 1113698.0 14728.0
564579.0 1121487.0 14741.0
566557.0 1123190.0 14833.0
567114.0 1123546.0 14646.0
568635.0 1124890.0 14758.0
556790.0 1115704.0 14818.0
557214.0 1116067.0 14804.0
567167.0 1124138.0 14714.0
556553.0 1115639.0 14781.0
557038.0 1116056.0 14717.0
557358.0 1116567.0 14834.0
565095.0 1122921.0 14749.0
569272.0 1126367.0 14647.0
557304.0 1116723.0 14804.0
569390.0 1126662.0 14742.0
553457.0 1113825.0 14658.0
567239.0 1124998.0 14671.0
565981.0 1124197.0 14655.0
567851.0 1125788.0 14707.0
566554.0 1125123.0 14681.0
567540.0 1126027.0 14823.0
566033.0 1124831.0 14770.0
567799.0 1126316.0 14712.0
566128.0 1125126.0 14762.0
567314.0 1126362.0 14823.0
554788.0 1116430.0 14705.0
566078.0 1125534.0 14672.0
555162.0 1117085.0 14672.0
556872.0 1118488.0 14683.0
555146.0 1117419.0 14707.0
551934.0 1115165.0 14677.0
554166.0 1117025.0 14825.0
554663.0 1117276.0 14740.0
556174.0 1118812.0 14705.0
563452.0 1124687.0 14795.0
553912.0 1117229.0 14770.0
555234.0 1118319.0 14809.0
556068.0 1118996.0 14797.0
558655.0 1121313.0 14745.0
563071.0 1124793.0 14822.0
560214.0 1122774.0 14640.0
562942.0 1124988.0 14732.0
558638.0 1121837.0 14754.0
564026.0 1126079.0 14772.0
564473.0 1126398.0 14719.0
563814.0 1125975.0 14638.0
557449.0 1121250.0 14780.0
558454.0 1121891.0 14687.0
563860.0 1126271.0 14768.0
556877.0 1121285.0 14697.0
563690.0 1126693.0 14772.0
556152.0 1121050.0 14804.0
558797.0 1123667.0 14758.0
555373.0 1121263.0 14761.0
557574.0 1122973.0 14792.0
558493.0 1123652.0 14762.0
554509.0 1120712.0 14641.0
557548.0 1123098.0 14759.0
558813.0 1124173.0 14828.0
559282.0 1124449.0 14688.0
558574.0 1124105.0 14708.0
555308.0 1122070.0 14692.0
560239.0 1126551.0 14709.0
558911.0 1126138.0 14719.0
554901.0 1123785.0 14641.0
554443.0 1124075.0 14781.0
569467.0 1126351.0 14666.0
569525.0 1124671.0 14643.0
568955.0 1126097.0 14664.0
569183.0 1125203.0 14799.0
569388.0 1123907.0 14726.0
568715.0 1125820.0 14687.0
569069.0 1123962.0 14646.0
568836.0 1122366.0 14653.0
568086.0 1125489.0 14784.0
568298.0 1124060.0 14673.0
568684.0 1122251.0 14671.0
568184.0 1123674.0 14651.0
568560.0 1122018.0 14791.0
567477.0 1126444.0 14759.0
568154.0 1122762.0 14668.0
568265.0 1121039.0 14776.0
566922.0 1126895.0 14759.0
567658.0 1122627.0 14742.0
567022.0 1124275.0 14702.0
568088.0 1118870.0 14648.0
567412.0 1121002.0 14783.0
566672.0 1123227.0 14701.0
566789.0 1122831.0 14823.0
567120.0 1121179.0 14814.0
566037.0 1124817.0 14678.0
566836.0 1120712.0 14680.0
566907.0 1120270.0 14654.0
567028.0 1119782.0 14802.0
565457.0 1125325.0 14659.0
566329.0 1119871.0 14751.0
565374.0 1123667.0 14758.0
565775.0 1121766.0 14777.0
566297.0 1119006.0 14694.0
565648.0 1120741.0 14646.0
564353.0 1126122.0 14825.0
564071.0 1126051.0 14700.0
563910.0 1125847.0 14641.0
563909.0 1124945.0 14776.0
564656.0 1121259.0 14759.0
563411.0 1126643.0 14684.0
563489.0 1126207.0 14661.0
563711.0 1124765.0 14677.0
564336.0 1121456.0 14652.0
562382.0 1127367.0 14794.0
560498.0 1126558.0 14709.0
560230.0 1126254.0 14680.0
560486.0 1124829.0 14700.0
559960.0 1126361.0 14732.0
560301.0 1124458.0 14777.0
560495.0 1123064.0 14670.0
559070.0 1125965.0 14785.0
558726.0 1121718.0 14805.0
555610.0 1120270.0 14763.0
556499.0 1115352.0 14781.0
556609.0 1114029.0 14649.0
555413.0 1120561.0 14720.0
556033.0 1116759.0 14802.0
554950.0 1121686.0 14685.0
555085.0 1121248.0 14758.0
555751.0 1116862.0 14810.0
556288.0 1114020.0 14657.0
556337.0 1113563.0 14728.0
556427.0 1113106.0 14811.0
556169.0 1112930.0 14733.0
555091.0 1117295.0 14722.0
554892.0 1117155.0 14784.0
555055.0 1116222.0 14805.0
555426.0 1113794.0 14673.0
554668.0 1117079.0 14762.0
553836.0 1117135.0 14793.0
554333.0 1111453.0 14735.0
553749.0 1111378.0 14746.0
553470.0 1111564.0 14678.0
557940.0 1127124.0 14818.0
560325.0 1126605.0 14835.0
560486.0 1126519.0 14719.0
557213.0 1124077.0 14638.0
563885.0 1126744.0 14704.0
563477.0 1126562.0 14746.0
563751.0 1126417.0 14674.0
562816.0 1125686.0 14691.0
564077.0 1125984.0 14737.0
558953.0 1123799.0 14751.0
558656.0 1123655.0 14685.0
555118.0 1122046.0 14789.0
566984.0 1126931.0 14698.0
564010.0 1125721.0 14648.0
554655.0 1121580.0 14688.0
554124.0 1120966.0 14809.0
567515.0 1126526.0 14809.0
567151.0 1126433.0 14672.0
566042.0 1125879.0 14753.0
568693.0 1126700.0 14744.0
566472.0 1125846.0 14730.0
565688.0 1125517.0 14654.0
560532.0 1123228.0 14836.0
560133.0 1123081.0 14835.0
560519.0 1123112.0 14723.0
560140.0 1122954.0 14659.0
569324.0 1126605.0 14667.0
567839.0 1125974.0 14819.0
556222.0 1121070.0 14685.0
569417.0 1126418.0 14654.0
568305.0 1125956.0 14743.0
558734.0 1121898.0 14675.0
564912.0 1124198.0 14689.0
568416.0 1125381.0 14666.0
567225.0 1124926.0 14740.0
566870.0 1124724.0 14750.0
566855.0 1124359.0 14721.0
565398.0 1123783.0 14674.0
570117.0 1125064.0 14755.0
569393.0 1124722.0 14804.0
569020.0 1124588.0 14772.0
568254.0 1124276.0 14648.0
555753.0 1118951.0 14714.0
569740.0 1124664.0 14685.0
567176.0 1123601.0 14642.0
566878.0 1123404.0 14774.0
554947.0 1118330.0 14722.0
568064.0 1123736.0 14676.0
566565.0 1123130.0 14681.0
566557.0 1122734.0 14822.0
567613.0 1122894.0 14709.0
567007.0 1122409.0 14649.0
565940.0 1121939.0 14781.0
564467.0 1121386.0 14638.0
555546.0 1116958.0 14716.0
551798.0 1115272.0 14720.0
568817.0 1122390.0 14658.0
567043.0 1121621.0 14791.0
555637.0 1116796.0 14711.0
568835.0 1122140.0 14721.0
557270.0 1117261.0 14761.0
568127.0 1121294.0 14805.0
567775.0 1121126.0 14809.0
567434.0 1121015.0 14796.0
567049.0 1120930.0 14662.0
567355.0 1120716.0 14638.0
566593.0 1120321.0 14836.0
553911.0 1114914.0 14798.0
567079.0 1120251.0 14709.0
557091.0 1116072.0 14723.0
567163.0 1119422.0 14749.0
554063.0 1113920.0 14654.0
556295.0 1114419.0 14741.0
556357.0 1114231.0 14679.0
555306.0 1113775.0 14699.0
556353.0 1113951.0 14658.0
556197.0 1113629.0 14729.0
554239.0 1112781.0 14658.0
556130.0 1112952.0 14757.0
553917.0 1111992.0 14756.0
556119.0 1112704.0 14688.0
553765.0 1111631.0 14823.0
556178.0 1112531.0 14662.0
554342.0 1111632.0 14808.0
553985.0 1111440.0 14734.0
553638.0 1111334.0 14733.0
557686.0 1111921.0 14707.0
552224.0 1114470.0 14547.0
553322.0 1113912.0 14577.0
554158.0 1120550.0 14569.0
554406.0 1123908.0 14464.0
553646.0 1110980.0 14625.0
554483.0 1121268.0 14504.0
554597.0 1120616.0 14575.0
554681.0 1121291.0 14463.0
554590.0 1115417.0 14453.0
554604.0 1113151.0 14580.0
555183.0 1121080.0 14616.0
554711.0 1111038.0 14499.0
554903.0 1113830.0 14602.0
555152.0 1116626.0 14558.0
555455.0 1121393.0 14586.0
555860.0 1126718.0 14446.0
555177.0 1115399.0 14635.0
555313.0 1116878.0 14622.0
555626.0 1120768.0 14472.0
556009.0 1126722.0 14504.0
556345.0 1118593.0 14457.0
556822.0 1125631.0 14590.0
556174.0 1113765.0 14519.0
556816.0 1121414.0 14468.0
556954.0 1122750.0 14477.0
556354.0 1113938.0 14514.0
556683.0 1118578.0 14607.0
556996.0 1121669.0 14496.0
556236.0 1111759.0 14593.0
557338.0 1122314.0 14561.0
557442.0 1123831.0 14600.0
557669.0 1126138.0 14555.0
557510.0 1122638.0 14579.0
557780.0 1125783.0 14570.0
557940.0 1125715.0 14507.0
558509.0 1121863.0 14595.0
558777.0 1121600.0 14551.0
559187.0 1124327.0 14552.0
559334.0 1124314.0 14623.0
559692.0 1125912.0 14443.0
560155.0 1125919.0 14592.0
561907.0 1124714.0 14466.0
562754.0 1125148.0 14488.0
563617.0 1126071.0 14495.0
563693.0 1125391.0 14487.0
563726.0 1126120.0 14572.0
563961.0 1125313.0 14493.0
565560.0 1123958.0 14565.0
566105.0 1126217.0 14542.0
566241.0 1125936.0 14600.0
565971.0 1121393.0 14519.0
566585.0 1126661.0 14446.0
566845.0 1126737.0 14517.0
567026.0 1126700.0 14485.0
567241.0 1126123.0 14472.0
566982.0 1121118.0 14536.0
567208.0 1123485.0 14627.0
567038.0 1121329.0 14579.0
567423.0 1124027.0 14529.0
567597.0 1125783.0 14498.0
567079.0 1121192.0 14576.0
567514.0 1122505.0 14618.0
567899.0 1125154.0 14480.0
568037.0 1124928.0 14465.0
567486.0 1119297.0 14468.0
567567.0 1120125.0 14451.0
567965.0 1123265.0 14501.0
568127.0 1124901.0 14555.0
567484.0 1118651.0 14505.0
567558.0 1119560.0 14571.0
567756.0 1119676.0 14449.0
568218.0 1123447.0 14515.0
567885.0 1119662.0 14440.0
568692.0 1126044.0 14488.0
567928.0 1119145.0 14484.0
568851.0 1126450.0 14546.0
568007.0 1118914.0 14568.0
568130.0 1119875.0 14486.0
569035.0 1126589.0 14533.0
568230.0 1119247.0 14499.0
568884.0 1124182.0 14507.0
569170.0 1126505.0 14636.0
568922.0 1123275.0 14549.0
569185.0 1121085.0 14457.0
569869.0 1126708.0 14526.0
569251.0 1119941.0 14505.0
570228.0 1125614.0 14451.0
570349.0 1125289.0 14517.0
570413.0 1126086.0 14602.0
569227.0 1119787.0 14595.0
567719.0 1118611.0 14471.0
568169.0 1119024.0 14482.0
567913.0 1119017.0 14512.0
567433.0 1119071.0 14609.0
567895.0 1119442.0 14601.0
567753.0 1119517.0 14465.0
569308.0 1120957.0 14579.0
567280.0 1119414.0 14510.0
569182.0 1121092.0 14533.0
569245.0 1121422.0 14631.0
569161.0 1121487.0 14605.0
567013.0 1121074.0 14602.0
554832.0 1111137.0 14463.0
566781.0 1121082.0 14463.0
554283.0 1110922.0 14558.0
554729.0 1111274.0 14497.0
566431.0 1120971.0 14455.0
570943.0 1124941.0 14548.0
554271.0 1111098.0 14575.0
554746.0 1111447.0 14454.0
570844.0 1124986.0 14585.0
570652.0 1124982.0 14523.0
567642.0 1122633.0 14559.0
568094.0 1123041.0 14631.0
570402.0 1125005.0 14552.0
553832.0 1111442.0 14522.0
566760.0 1122023.0 14498.0
570331.0 1125122.0 14527.0
565941.0 1121530.0 14567.0
567889.0 1123136.0 14465.0
553739.0 1111601.0 14483.0
569285.0 1124592.0 14574.0
570279.0 1125362.0 14495.0
556184.0 1113779.0 14509.0
567597.0 1123238.0 14477.0
554782.0 1112929.0 14533.0
568117.0 1123839.0 14495.0
569124.0 1124604.0 14468.0
570468.0 1125855.0 14501.0
554571.0 1112974.0 14562.0
567127.0 1123273.0 14496.0
569479.0 1125183.0 14442.0
570354.0 1125995.0 14512.0
554658.0 1113329.0 14617.0
554522.0 1113401.0 14443.0
554972.0 1113839.0 14618.0
564583.0 1121609.0 14552.0
566480.0 1123204.0 14580.0
567339.0 1124044.0 14634.0
568792.0 1125203.0 14606.0
565787.0 1122969.0 14523.0
568110.0 1124834.0 14485.0
568979.0 1125658.0 14618.0
569940.0 1126390.0 14457.0
567962.0 1124992.0 14490.0
569985.0 1126721.0 14500.0
554229.0 1114003.0 14618.0
566981.0 1124361.0 14633.0
567885.0 1125129.0 14539.0
569763.0 1126698.0 14517.0
553797.0 1113903.0 14616.0
564935.0 1122851.0 14526.0
565790.0 1123543.0 14534.0
568013.0 1125524.0 14635.0
568522.0 1125822.0 14472.0
568969.0 1126223.0 14470.0
564822.0 1122918.0 14439.0
565718.0 1123761.0 14578.0
566226.0 1124182.0 14519.0
567796.0 1125443.0 14546.0
553220.0 1113874.0 14637.0
565567.0 1123767.0 14481.0
565654.0 1124095.0 14582.0
564647.0 1123622.0 14616.0
566508.0 1125183.0 14613.0
567514.0 1126170.0 14573.0
554737.0 1115990.0 14454.0
566403.0 1125454.0 14588.0
566551.0 1125889.0 14563.0
567017.0 1126250.0 14537.0
556475.0 1118120.0 14627.0
563170.0 1123427.0 14469.0
566296.0 1126028.0 14571.0
567685.0 1127131.0 14441.0
556616.0 1118505.0 14520.0
566025.0 1126086.0 14459.0
566541.0 1126518.0 14473.0
566590.0 1126762.0 14442.0
553853.0 1116879.0 14526.0
561046.0 1122902.0 14601.0
563452.0 1124714.0 14475.0
563809.0 1125054.0 14452.0
566152.0 1126915.0 14533.0
560887.0 1123012.0 14631.0
564022.0 1125396.0 14504.0
555843.0 1119124.0 14573.0
558745.0 1121433.0 14460.0
563650.0 1125326.0 14461.0
555806.0 1119197.0 14454.0
558461.0 1121309.0 14492.0
559353.0 1122040.0 14468.0
563839.0 1125672.0 14557.0
560534.0 1123120.0 14481.0
562243.0 1124601.0 14587.0
563141.0 1125288.0 14630.0
558500.0 1121659.0 14523.0
562880.0 1125170.0 14463.0
564337.0 1126381.0 14544.0
562037.0 1124750.0 14618.0
564387.0 1126523.0 14503.0
563473.0 1126030.0 14452.0
558374.0 1122369.0 14580.0
555729.0 1120640.0 14520.0
560521.0 1124610.0 14605.0
555490.0 1121018.0 14632.0
557412.0 1122423.0 14464.0
554491.0 1120529.0 14611.0
558963.0 1123939.0 14447.0
555339.0 1121383.0 14632.0
558447.0 1123750.0 14595.0
554288.0 1120710.0 14565.0
555260.0 1121487.0 14583.0
555339.0 1121725.0 14457.0
562525.0 1127357.0 14528.0
554970.0 1121696.0 14488.0
557590.0 1123684.0 14452.0
557332.0 1123914.0 14623.0
560221.0 1126138.0 14561.0
560202.0 1126714.0 14542.0
554939.0 1123154.0 14623.0
557976.0 1125418.0 14448.0
554865.0 1123287.0 14562.0
558688.0 1126124.0 14506.0
559149.0 1126536.0 14521.0
557775.0 1125803.0 14581.0
554653.0 1123735.0 14524.0
554530.0 1123780.0 14452.0
557612.0 1126146.0 14597.0
555794.0 1124947.0 14628.0
557556.0 1126320.0 14597.0
557084.0 1126551.0 14451.0
557026.0 1126839.0 14486.0
556807.0 1127061.0 14599.0
555842.0 1126713.0 14474.0
555635.0 1126860.0 14596.0
570383.0 1125187.0 14469.0
569830.0 1126848.0 14553.0
569924.0 1125275.0 14525.0
569180.0 1126373.0 14621.0
569380.0 1125077.0 14480.0
569283.0 1124291.0 14596.0
568737.0 1125346.0 14458.0
568187.0 1126739.0 14550.0
568275.0 1126376.0 14607.0
568405.0 1125470.0 14498.0
569434.0 1120839.0 14605.0
568956.0 1121402.0 14462.0
568325.0 1122811.0 14533.0
567672.0 1125026.0 14517.0
567750.0 1124609.0 14523.0
568029.0 1123207.0 14534.0
568726.0 1119650.0 14536.0
567022.0 1127032.0 14464.0
567272.0 1126138.0 14573.0
568141.0 1119978.0 14552.0
566537.0 1126538.0 14470.0
566755.0 1125100.0 14487.0
567084.0 1123789.0 14484.0
567177.0 1123400.0 14600.0
567985.0 1119273.0 14468.0
566315.0 1126024.0 14461.0
566921.0 1123244.0 14611.0
567056.0 1121893.0 14452.0
566055.0 1126194.0 14545.0
566077.0 1125795.0 14531.0
566683.0 1122330.0 14453.0
565911.0 1125220.0 14558.0
566551.0 1122067.0 14562.0
565674.0 1125324.0 14609.0
565993.0 1123449.0 14520.0
566397.0 1121126.0 14439.0
566654.0 1120210.0 14590.0
566686.0 1119696.0 14476.0
565416.0 1123984.0 14612.0
565647.0 1123145.0 14532.0
565199.0 1124074.0 14545.0
565814.0 1120817.0 14473.0
564161.0 1126537.0 14445.0
564846.0 1123345.0 14568.0
564955.0 1122918.0 14611.0
563868.0 1126515.0 14497.0
563645.0 1126632.0 14451.0
563711.0 1126246.0 14466.0
563517.0 1126690.0 14505.0
563570.0 1126276.0 14501.0
563796.0 1125392.0 14477.0
562910.0 1126129.0 14607.0
562689.0 1125437.0 14591.0
562738.0 1124997.0 14506.0
562193.0 1124491.0 14516.0
561916.0 1124603.0 14484.0
560455.0 1126080.0 14448.0
560726.0 1122982.0 14498.0
559903.0 1125951.0 14528.0
560252.0 1122799.0 14503.0
559775.0 1122842.0 14562.0
559405.0 1122098.0 14549.0
557809.0 1126944.0 14613.0
557891.0 1126447.0 14624.0
557931.0 1125970.0 14589.0
556952.0 1126009.0 14595.0
557621.0 1121963.0 14547.0
557284.0 1122457.0 14501.0
557527.0 1121107.0 14479.0
556953.0 1121586.0 14472.0
556779.0 1121379.0 14529.0
556170.0 1121468.0 14518.0
555346.0 1121590.0 14546.0
555494.0 1120708.0 14522.0
555168.0 1121507.0 14580.0
555566.0 1119176.0 14505.0
556207.0 1115372.0 14592.0
556347.0 1113895.0 14438.0
554650.0 1121267.0 14474.0
554438.0 1120644.0 14439.0
555954.0 1112175.0 14608.0
555114.0 1113944.0 14489.0
554723.0 1111334.0 14509.0
554299.0 1112653.0 14568.0
554398.0 1111698.0 14448.0
554517.0 1111258.0 14544.0
554319.0 1110919.0 14463.0
553883.0 1111316.0 14509.0
551776.0 1115081.0 14569.0
560448.0 1126216.0 14568.0
560035.0 1126044.0 14559.0
559669.0 1125823.0 14572.0
563377.0 1126280.0 14585.0
564229.0 1126395.0 14563.0
563854.0 1126272.0 14533.0
563178.0 1125776.0 14441.0
562824.0 1125566.0 14557.0
554275.0 1121802.0 14464.0
566599.0 1126844.0 14541.0
558734.0 1123494.0 14623.0
555390.0 1121976.0 14599.0
554277.0 1121471.0 14517.0
566949.0 1126718.0 14490.0
562161.0 1124643.0 14548.0
556664.0 1122249.0 14463.0
555174.0 1121559.0 14587.0
554834.0 1121402.0 14630.0
554429.0 1121269.0 14481.0
563949.0 1125185.0 14450.0
563625.0 1125010.0 14495.0
562401.0 1124543.0 14450.0
555332.0 1121406.0 14444.0
554529.0 1121047.0 14460.0
554183.0 1120785.0 14631.0
567560.0 1126322.0 14627.0
567252.0 1126212.0 14631.0
566084.0 1125711.0 14610.0
558241.0 1122357.0 14577.0
557834.0 1122183.0 14520.0
557485.0 1122026.0 14613.0
555580.0 1121259.0 14440.0
567799.0 1126294.0 14525.0
566345.0 1125686.0 14460.0
565654.0 1125384.0 14541.0
559746.0 1122814.0 14534.0
558305.0 1122165.0 14597.0
569708.0 1126807.0 14601.0
565844.0 1125214.0 14625.0
560499.0 1122951.0 14578.0
560068.0 1122807.0 14442.0
558174.0 1121964.0 14547.0
569770.0 1126644.0 14529.0
569078.0 1126335.0 14580.0
560574.0 1122794.0 14445.0
558381.0 1121808.0 14595.0
555712.0 1120648.0 14487.0
569918.0 1126466.0 14452.0
569176.0 1126139.0 14535.0
567764.0 1125530.0 14506.0
566647.0 1125099.0 14475.0
566315.0 1124938.0 14578.0
558650.0 1121636.0 14623.0
570236.0 1126203.0 14439.0
568008.0 1125265.0 14544.0
564590.0 1123763.0 14618.0
561037.0 1122364.0 14503.0
568709.0 1125174.0 14582.0
570449.0 1125487.0 14637.0
569690.0 1125198.0 14538.0
568216.0 1124621.0 14557.0
555981.0 1119356.0 14536.0
570432.0 1125050.0 14480.0
569434.0 1124559.0 14626.0
555937.0 1118894.0 14445.0
569757.0 1124547.0 14485.0
567255.0 1123447.0 14550.0
569493.0 1124085.0 14634.0
566142.0 1122673.0 14535.0
556471.0 1118567.0 14509.0
567961.0 1123137.0 14507.0
564236.0 1121652.0 14458.0
568081.0 1122895.0 14556.0
566635.0 1122313.0 14521.0
566754.0 1122097.0 14492.0
551846.0 1115149.0 14582.0
566515.0 1121289.0 14446.0
565818.0 1120961.0 14482.0
568413.0 1121769.0 14592.0
566889.0 1121171.0 14579.0
566543.0 1120992.0 14556.0
566153.0 1120909.0 14490.0
566668.0 1120875.0 14473.0
568814.0 1121357.0 14519.0
568154.0 1121039.0 14608.0
567726.0 1120869.0 14574.0
566966.0 1120625.0 14445.0
554265.0 1115120.0 14632.0
566768.0 1120143.0 14609.0
554082.0 1114828.0 14455.0
566333.0 1119652.0 14554.0
568016.0 1120088.0 14459.0
566182.0 1119292.0 14631.0
554034.0 1114195.0 14542.0
566376.0 1119213.0 14452.0
568378.0 1119796.0 14459.0
554737.0 1113875.0 14469.0
568117.0 1119142.0 14603.0
567208.0 1118630.0 14438.0
556602.0 1114128.0 14535.0
556497.0 1113842.0 14472.0
554447.0 1112651.0 14445.0
554512.0 1111488.0 14593.0
553772.0 1111154.0 14614.0
554652.0 1111288.0 14559.0
554290.0 1111156.0 14482.0
553895.0 1110960.0 14550.0
