581466.0 1091564.0 7007.0
581500.0 1091620.0 7007.0
581491.0 1091682.0 7016.0
579391.0 1090555.0 6751.0
580735.0 1090273.0 6648.0
581648.0 1091986.0 6674.0
581838.0 1090921.0 6757.0
581953.0 1090851.0 6752.0
580892.0 1090039.0 6786.0
581701.0 1090984.0 6701.0
580825.0 1090164.0 6795.0
581790.0 1091835.0 6743.0
581426.0 1091317.0 6643.0
580826.0 1090800.0 6645.0
579939.0 1090955.0 6783.0
579589.0 1090608.0 6812.0
581333.0 1092592.0 6640.0
581678.0 1091348.0 6655.0
581176.0 1091958.0 6725.0
580863.0 1090035.0 6795.0
580368.0 1089676.0 6823.0
579850.0 1090208.0 6731.0
581133.0 1092608.0 6761.0
581376.0 1092407.0 6646.0
581285.0 1092084.0 6653.0
581745.0 1091305.0 6653.0
580367.0 1090805.0 6738.0
582121.0 1091075.0 6827.0
581069.0 1090718.0 6822.0
579695.0 1090282.0 6802.0
580779.0 1090035.0 6796.0
580413.0 1090019.0 6687.0
580862.0 1089805.0 6691.0
579714.0 1090036.0 6505.0
580380.0 1090306.0 6633.0
581028.0 1092238.0 6450.0
581140.0 1092552.0 6575.0
581305.0 1092614.0 6583.0
581397.0 1092267.0 6532.0
581613.0 1092503.0 6573.0
581409.0 1091235.0 6570.0
581798.0 1092074.0 6594.0
581922.0 1092211.0 6500.0
581276.0 1089793.0 6582.0
581996.0 1092113.0 6459.0
581265.0 1089746.0 6598.0
581520.0 1089637.0 6447.0
581317.0 1089980.0 6583.0
581552.0 1090939.0 6599.0
580002.0 1089534.0 6502.0
580631.0 1090253.0 6561.0
579988.0 1089552.0 6514.0
580751.0 1090488.0 6593.0
581418.0 1091274.0 6583.0
582054.0 1092009.0 6464.0
579964.0 1089478.0 6491.0
580058.0 1089629.0 6533.0
582013.0 1092035.0 6476.0
579777.0 1090113.0 6567.0
581235.0 1092010.0 6471.0
581134.0 1092118.0 6449.0
581428.0 1092695.0 6600.0
580579.0 1091781.0 6612.0
581166.0 1092539.0 6572.0
581782.0 1092058.0 6460.0
581430.0 1092176.0 6575.0
581524.0 1091732.0 6506.0
581726.0 1090967.0 6504.0
581187.0 1089634.0 6629.0
580670.0 1090388.0 6528.0
580925.0 1089676.0 6630.0
580322.0 1090570.0 6542.0
580440.0 1090208.0 6611.0
580041.0 1089465.0 6536.0
581448.0 1092740.0 6579.0
581932.0 1092332.0 6480.0
581630.0 1092263.0 6502.0
582135.0 1092026.0 6578.0
581807.0 1091992.0 6477.0
581484.0 1091871.0 6565.0
581262.0 1091493.0 6506.0
581421.0 1091249.0 6495.0
580730.0 1090972.0 6524.0
581726.0 1091053.0 6572.0
580390.0 1090629.0 6440.0
579849.0 1090138.0 6517.0
581119.0 1090195.0 6599.0
580008.0 1089966.0 6489.0
581168.0 1089986.0 6484.0
581384.0 1089708.0 6485.0
581684.0 1089631.0 6372.0
581818.0 1089524.0 6322.0
581744.0 1089383.0 6260.0
581594.0 1089414.0 6373.0
580289.0 1089557.0 6277.0
581353.0 1091197.0 6417.0
580432.0 1090553.0 6424.0
581221.0 1091448.0 6285.0
581146.0 1091614.0 6290.0
581059.0 1091888.0 6416.0
581007.0 1091925.0 6262.0
580785.0 1091780.0 6330.0
581350.0 1090768.0 6266.0
581644.0 1089644.0 6264.0
581242.0 1090008.0 6301.0
580366.0 1091096.0 6315.0
580514.0 1090734.0 6302.0
580331.0 1089233.0 6418.0
579857.0 1089814.0 6366.0
579532.0 1091608.0 6254.0
581054.0 1091195.0 6251.0
581367.0 1091026.0 6249.0
580683.0 1090758.0 6354.0
579725.0 1089926.0 6319.0
581750.0 1089664.0 6257.0
579575.0 1089767.0 6178.0
580152.0 1091580.0 6081.0
580060.0 1091356.0 6163.0
580647.0 1090365.0 6218.0
581411.0 1090052.0 6077.0
580954.0 1088812.0 6138.0
580779.0 1090297.0 6221.0
579587.0 1089742.0 6058.0
579676.0 1090695.0 6123.0
581216.0 1091094.0 6196.0
580574.0 1091182.0 6094.0
579923.0 1091381.0 6082.0
579047.0 1091302.0 6135.0
579984.0 1091509.0 6230.0
579689.0 1091423.0 6204.0
580545.0 1090496.0 6231.0
579644.0 1091324.0 5850.0
579810.0 1091226.0 5879.0
579726.0 1090789.0 5960.0
579732.0 1090734.0 5935.0
579734.0 1090561.0 5929.0
581181.0 1090243.0 5882.0
582465.0 1091670.0 5925.0
582919.0 1091098.0 5855.0
582987.0 1090937.0 5903.0
582978.0 1091015.0 5911.0
582940.0 1091104.0 5871.0
581193.0 1089224.0 6025.0
580899.0 1090311.0 5917.0
580866.0 1090323.0 5923.0
580138.0 1090933.0 5864.0
579701.0 1090959.0 5907.0
579620.0 1091211.0 5841.0
580696.0 1090381.0 5929.0
580533.0 1089992.0 5876.0
579538.0 1091224.0 5851.0
580037.0 1089565.0 5867.0
579235.0 1091232.0 5881.0
581349.0 1093811.0 5847.0
579344.0 1091365.0 5988.0
579018.0 1091281.0 5871.0
581189.0 1090853.0 5859.0
581411.0 1090561.0 5965.0
581438.0 1090311.0 5851.0
580399.0 1091360.0 5668.0
580194.0 1090366.0 5687.0
580906.0 1091299.0 5808.0
581134.0 1089079.0 5782.0
581147.0 1088895.0 5638.0
581552.0 1089081.0 5759.0
582085.0 1090642.0 5745.0
582449.0 1091615.0 5829.0
582815.0 1091112.0 5809.0
580920.0 1088998.0 5795.0
580558.0 1088784.0 5795.0
580455.0 1088862.0 5685.0
582444.0 1091598.0 5818.0
580798.0 1089674.0 5664.0
580708.0 1090712.0 5675.0
580469.0 1090821.0 5782.0
580522.0 1091126.0 5781.0
580562.0 1091108.0 5644.0
581219.0 1093645.0 5649.0
578925.0 1091125.0 5723.0
582975.0 1091185.0 5789.0
583088.0 1090841.0 5827.0
582726.0 1091265.0 5728.0
582829.0 1090879.0 5712.0
581376.0 1093649.0 5703.0
580822.0 1089973.0 5793.0
581023.0 1089106.0 5760.0
579397.0 1091555.0 5657.0
579972.0 1088598.0 5670.0
578963.0 1090938.0 5649.0
581311.0 1093603.0 5660.0
579029.0 1091071.0 5685.0
582345.0 1091856.0 5695.0
582026.0 1091726.0 5756.0
579558.0 1090963.0 5743.0
580994.0 1091071.0 5679.0
583046.0 1091410.0 5781.0
582635.0 1091372.0 5680.0
582790.0 1091085.0 5707.0
580713.0 1090390.0 5820.0
580446.0 1090008.0 5785.0
580105.0 1089887.0 5768.0
581677.0 1090167.0 5642.0
581106.0 1089138.0 5685.0
580661.0 1088700.0 5656.0
579067.0 1090786.0 5493.0
579812.0 1090477.0 5605.0
580029.0 1089900.0 5501.0
580065.0 1088940.0 5470.0
580156.0 1089063.0 5442.0
580065.0 1088549.0 5610.0
580786.0 1090789.0 5597.0
580575.0 1089729.0 5484.0
580804.0 1090147.0 5508.0
580879.0 1090234.0 5559.0
580738.0 1089510.0 5624.0
582166.0 1091197.0 5460.0
582573.0 1090999.0 5626.0
582625.0 1090814.0 5593.0
582328.0 1090612.0 5563.0
581873.0 1090336.0 5516.0
582488.0 1091084.0 5570.0
582000.0 1090737.0 5635.0
580519.0 1089103.0 5607.0
580187.0 1088886.0 5565.0
581466.0 1090408.0 5489.0
582097.0 1091158.0 5446.0
580499.0 1089378.0 5489.0
581275.0 1090354.0 5557.0
580000.0 1088822.0 5471.0
580622.0 1089650.0 5538.0
581228.0 1090448.0 5599.0
580275.0 1089258.0 5485.0
580272.0 1089280.0 5480.0
580035.0 1088936.0 5457.0
580630.0 1089726.0 5538.0
580491.0 1089497.0 5452.0
580231.0 1089189.0 5482.0
580349.0 1089418.0 5454.0
580430.0 1089878.0 5623.0
581126.0 1090578.0 5477.0
580007.0 1089436.0 5444.0
580887.0 1091052.0 5512.0
579902.0 1090332.0 5624.0
580521.0 1091400.0 5491.0
579406.0 1091399.0 5589.0
581275.0 1093638.0 5636.0
579417.0 1091473.0 5572.0
578877.0 1091044.0 5492.0
582308.0 1091498.0 5581.0
582357.0 1091093.0 5518.0
582537.0 1090722.0 5571.0
581993.0 1091364.0 5464.0
582099.0 1090967.0 5475.0
582223.0 1090613.0 5519.0
581895.0 1090351.0 5444.0
581641.0 1090087.0 5637.0
581359.0 1089952.0 5628.0
580959.0 1089926.0 5461.0
581132.0 1089546.0 5590.0
581210.0 1089147.0 5529.0
580840.0 1089489.0 5552.0
581062.0 1088674.0 5510.0
580550.0 1089513.0 5528.0
580684.0 1089137.0 5546.0
580805.0 1088766.0 5583.0
580302.0 1089308.0 5497.0
580575.0 1088542.0 5571.0
580217.0 1088773.0 5636.0
579203.0 1090863.0 5540.0
581581.0 1093801.0 5586.0
579372.0 1091219.0 5595.0
579167.0 1090892.0 5519.0
582377.0 1091608.0 5543.0
582020.0 1091505.0 5498.0
580839.0 1090831.0 5502.0
582387.0 1091069.0 5482.0
582067.0 1090969.0 5462.0
581730.0 1090859.0 5478.0
582790.0 1090843.0 5606.0
582458.0 1090754.0 5529.0
582109.0 1090629.0 5525.0
581757.0 1090492.0 5575.0
580593.0 1089810.0 5615.0
581360.0 1089797.0 5460.0
581022.0 1089636.0 5585.0
580332.0 1089455.0 5538.0
581271.0 1089500.0 5486.0
580951.0 1089352.0 5581.0
580578.0 1089309.0 5481.0
580251.0 1089165.0 5499.0
581443.0 1089361.0 5464.0
580708.0 1089133.0 5455.0
580370.0 1088926.0 5612.0
580017.0 1088847.0 5498.0
581010.0 1088899.0 5457.0
580283.0 1088656.0 5587.0
581197.0 1088689.0 5443.0
580512.0 1088470.0 5490.0
581479.0 1092906.0 5252.0
581804.0 1091094.0 5380.0
582022.0 1091389.0 5355.0
581877.0 1089969.0 5343.0
582810.0 1090526.0 5300.0
582086.0 1091280.0 5423.0
581985.0 1091246.0 5379.0
582190.0 1091490.0 5405.0
581843.0 1091134.0 5366.0
581970.0 1091300.0 5331.0
582410.0 1091741.0 5326.0
582376.0 1091732.0 5331.0
581806.0 1091252.0 5303.0
581522.0 1093305.0 5332.0
578879.0 1090790.0 5389.0
581591.0 1093535.0 5376.0
582108.0 1091863.0 5422.0
581277.0 1091171.0 5333.0
581060.0 1090242.0 5240.0
580835.0 1090313.0 5402.0
579067.0 1093231.0 5251.0
578992.0 1093068.0 5248.0
583402.0 1091956.0 5370.0
579201.0 1090676.0 5295.0
582191.0 1091352.0 5362.0
581856.0 1091244.0 5402.0
581513.0 1091073.0 5425.0
579604.0 1090198.0 5437.0
582735.0 1090578.0 5401.0
582390.0 1090426.0 5363.0
582031.0 1090336.0 5376.0
580957.0 1090052.0 5352.0
580676.0 1089601.0 5436.0
580021.0 1093462.0 5057.0
580867.0 1093411.0 5050.0
581475.0 1094090.0 5079.0
581341.0 1090979.0 5219.0
582270.0 1089981.0 5051.0
582299.0 1089118.0 5047.0
582987.0 1090211.0 5092.0
582226.0 1089987.0 5086.0
583211.0 1091767.0 5235.0
581418.0 1091540.0 5128.0
580758.0 1092865.0 5087.0
579052.0 1093248.0 5068.0
583012.0 1091895.0 5159.0
581320.0 1093246.0 5233.0
581582.0 1091120.0 5214.0
581400.0 1089126.0 5164.0
579498.0 1093499.0 5071.0
579308.0 1093289.0 5110.0
579109.0 1092845.0 5089.0
579588.0 1091229.0 5096.0
578851.0 1092731.0 5176.0
581629.0 1094175.0 5151.0
579791.0 1093666.0 5087.0
579489.0 1093534.0 5117.0
579369.0 1093243.0 5047.0
579211.0 1092930.0 5066.0
583065.0 1092180.0 5220.0
583043.0 1091945.0 5120.0
579917.0 1089060.0 5076.0
581363.0 1089119.0 5194.0
579697.0 1093301.0 4898.0
579937.0 1093418.0 5003.0
579601.0 1089843.0 4917.0
579611.0 1089099.0 4876.0
580732.0 1093092.0 4882.0
579673.0 1089257.0 4862.0
580095.0 1090670.0 4855.0
579661.0 1089024.0 4867.0
580895.0 1093305.0 4990.0
580997.0 1093361.0 5012.0
579858.0 1089100.0 4972.0
581095.0 1093237.0 4968.0
581593.0 1094020.0 4959.0
581506.0 1092912.0 4942.0
582039.0 1094164.0 4965.0
582046.0 1094039.0 4992.0
581761.0 1092425.0 4845.0
581359.0 1090136.0 4959.0
582723.0 1092004.0 4884.0
582855.0 1092155.0 4952.0
582899.0 1091779.0 4968.0
582620.0 1089754.0 4928.0
583523.0 1090594.0 5032.0
582880.0 1089267.0 4966.0
582901.0 1089419.0 4991.0
582757.0 1089285.0 4924.0
583616.0 1090366.0 4884.0
582774.0 1089348.0 4890.0
582623.0 1089533.0 4933.0
583317.0 1090335.0 4843.0
582292.0 1089162.0 4853.0
582176.0 1089116.0 5005.0
582412.0 1089350.0 4858.0
582999.0 1090193.0 5013.0
583211.0 1090744.0 4977.0
581569.0 1090256.0 4950.0
582841.0 1091867.0 4951.0
581429.0 1090275.0 4893.0
582772.0 1091963.0 4930.0
582906.0 1092131.0 4882.0
581278.0 1090183.0 4985.0
579629.0 1088977.0 4894.0
581573.0 1091291.0 4922.0
579865.0 1089471.0 4856.0
582208.0 1092415.0 4856.0
579713.0 1089487.0 4878.0
582206.0 1092516.0 4853.0
582017.0 1092393.0 4910.0
579478.0 1089407.0 4900.0
581985.0 1092474.0 4899.0
580178.0 1091990.0 5024.0
582129.0 1094225.0 4943.0
580165.0 1092052.0 4900.0
580756.0 1092918.0 5037.0
580979.0 1093162.0 4961.0
581586.0 1093942.0 4929.0
581406.0 1093780.0 4989.0
582086.0 1094409.0 4943.0
580884.0 1093206.0 4975.0
581536.0 1093930.0 4867.0
580898.0 1093350.0 4989.0
581519.0 1094040.0 5036.0
579370.0 1093157.0 4877.0
579231.0 1093191.0 4960.0
582033.0 1094259.0 4992.0
582234.0 1093464.0 4874.0
582692.0 1091816.0 4858.0
583173.0 1090187.0 4849.0
582001.0 1093386.0 4851.0
582417.0 1090264.0 5009.0
582256.0 1089805.0 4920.0
580928.0 1093129.0 4986.0
580699.0 1092879.0 5007.0
581679.0 1089225.0 4982.0
581199.0 1089492.0 4897.0
579736.0 1093487.0 4973.0
580163.0 1091859.0 4861.0
579544.0 1093130.0 4965.0
579351.0 1092908.0 4949.0
579673.0 1089450.0 4857.0
579799.0 1089116.0 5018.0
579345.0 1089621.0 4868.0
579477.0 1089236.0 4949.0
582277.0 1094228.0 4955.0
581918.0 1094106.0 4966.0
579703.0 1093408.0 4958.0
582047.0 1093904.0 4857.0
581684.0 1093744.0 4969.0
579589.0 1093107.0 4886.0
582321.0 1093694.0 4915.0
579218.0 1092681.0 4904.0
582912.0 1091789.0 4880.0
580616.0 1090656.0 4918.0
579856.0 1090523.0 4845.0
579181.0 1090277.0 4847.0
581009.0 1090486.0 5012.0
581248.0 1090308.0 4849.0
579563.0 1089438.0 4855.0
582256.0 1089989.0 5007.0
579441.0 1089198.0 4897.0
582492.0 1089869.0 4872.0
582180.0 1089700.0 4981.0
581658.0 1089316.0 4893.0
582889.0 1089426.0 4903.0
581575.0 1088996.0 4876.0
579458.0 1093288.0 4698.0
579823.0 1093165.0 4792.0
580103.0 1090618.0 4732.0
580017.0 1089604.0 4772.0
581345.0 1092638.0 4678.0
581601.0 1093266.0 4677.0
581060.0 1090937.0 4661.0
581727.0 1089706.0 4642.0
582346.0 1091801.0 4679.0
582428.0 1091898.0 4805.0
581898.0 1089891.0 4719.0
582534.0 1092053.0 4821.0
582567.0 1091940.0 4834.0
582456.0 1090518.0 4745.0
582276.0 1089454.0 4800.0
583694.0 1090246.0 4693.0
583673.0 1090057.0 4754.0
583643.0 1090169.0 4735.0
583684.0 1090243.0 4673.0
583473.0 1090151.0 4772.0
583452.0 1090364.0 4796.0
581931.0 1089607.0 4710.0
582554.0 1090433.0 4769.0
581460.0 1090141.0 4813.0
582769.0 1091964.0 4818.0
582801.0 1091978.0 4824.0
582652.0 1091862.0 4784.0
582543.0 1091908.0 4802.0
581680.0 1091175.0 4834.0
582429.0 1091977.0 4711.0
580035.0 1089663.0 4673.0
581011.0 1090919.0 4642.0
582898.0 1093296.0 4721.0
579652.0 1089458.0 4828.0
582735.0 1093083.0 4646.0
579732.0 1089632.0 4774.0
581937.0 1092314.0 4819.0
582712.0 1093149.0 4640.0
579858.0 1089938.0 4689.0
579387.0 1089962.0 4755.0
580015.0 1090704.0 4759.0
581752.0 1093098.0 4656.0
581510.0 1093104.0 4715.0
579636.0 1091201.0 4797.0
580922.0 1092687.0 4654.0
581591.0 1093393.0 4664.0
581431.0 1093477.0 4816.0
581533.0 1093674.0 4836.0
579163.0 1090973.0 4804.0
579939.0 1093107.0 4754.0
583658.0 1090208.0 4681.0
582449.0 1093441.0 4809.0
583236.0 1090573.0 4685.0
582974.0 1090591.0 4641.0
581838.0 1093703.0 4809.0
582358.0 1091824.0 4704.0
582889.0 1090283.0 4835.0
581674.0 1093549.0 4814.0
581745.0 1093158.0 4655.0
581825.0 1092216.0 4826.0
582393.0 1089771.0 4652.0
582570.0 1089439.0 4711.0
582265.0 1089443.0 4724.0
581861.0 1089500.0 4697.0
580804.0 1092006.0 4803.0
581144.0 1090742.0 4699.0
581280.0 1090356.0 4763.0
581525.0 1089569.0 4812.0
580018.0 1093254.0 4667.0
580466.0 1091748.0 4718.0
579779.0 1093069.0 4764.0
580838.0 1089498.0 4730.0
579390.0 1092483.0 4725.0
579950.0 1090577.0 4775.0
579770.0 1089994.0 4645.0
579904.0 1089609.0 4708.0
579476.0 1089863.0 4665.0
579919.0 1093255.0 4785.0
581965.0 1093615.0 4773.0
580202.0 1093087.0 4775.0
582611.0 1093531.0 4749.0
581880.0 1093348.0 4719.0
579369.0 1092498.0 4733.0
581631.0 1092619.0 4667.0
581833.0 1092323.0 4794.0
581435.0 1092256.0 4672.0
580690.0 1091950.0 4827.0
582607.0 1091946.0 4801.0
580507.0 1091366.0 4652.0
582544.0 1091716.0 4685.0
579641.0 1090783.0 4647.0
580233.0 1090622.0 4795.0
580636.0 1090480.0 4679.0
580305.0 1090395.0 4694.0
579948.0 1090301.0 4646.0
579587.0 1090145.0 4753.0
579294.0 1090034.0 4795.0
583381.0 1090635.0 4791.0
582706.0 1090460.0 4700.0
581989.0 1090275.0 4650.0
581642.0 1090159.0 4725.0
580909.0 1089978.0 4655.0
579893.0 1089623.0 4705.0
583301.0 1090388.0 4750.0
582944.0 1090326.0 4750.0
582595.0 1090206.0 4792.0
581908.0 1089959.0 4752.0
581512.0 1089924.0 4644.0
580851.0 1089673.0 4678.0
579801.0 1089361.0 4791.0
582378.0 1089576.0 4828.0
581851.0 1089151.0 4739.0
578466.0 1089981.0 4462.0
579047.0 1089562.0 4464.0
579482.0 1090442.0 4534.0
579767.0 1090562.0 4538.0
580040.0 1090447.0 4585.0
580174.0 1090444.0 4622.0
580679.0 1091459.0 4472.0
581173.0 1092637.0 4605.0
580761.0 1090536.0 4580.0
581267.0 1091798.0 4444.0
581919.0 1089548.0 4547.0
581960.0 1089509.0 4550.0
582492.0 1090729.0 4569.0
582059.0 1088922.0 4480.0
582576.0 1090689.0 4595.0
582935.0 1090868.0 4539.0
582957.0 1090704.0 4637.0
583384.0 1090905.0 4446.0
582350.0 1088537.0 4581.0
582361.0 1088637.0 4523.0
582219.0 1088430.0 4486.0
582204.0 1088584.0 4534.0
582088.0 1089005.0 4546.0
582041.0 1089201.0 4557.0
583360.0 1090798.0 4477.0
582422.0 1089801.0 4441.0
583188.0 1090829.0 4514.0
581480.0 1089723.0 4599.0
582212.0 1091052.0 4530.0
582408.0 1091316.0 4528.0
582079.0 1090934.0 4481.0
582682.0 1091511.0 4442.0
582046.0 1090813.0 4464.0
581937.0 1090769.0 4469.0
582544.0 1091582.0 4608.0
581771.0 1091554.0 4528.0
580784.0 1090558.0 4629.0
580297.0 1090091.0 4461.0
580890.0 1090832.0 4601.0
580554.0 1090428.0 4475.0
581301.0 1091307.0 4438.0
580224.0 1090057.0 4464.0
580868.0 1090839.0 4546.0
582758.0 1093178.0 4610.0
582332.0 1092834.0 4475.0
580112.0 1090291.0 4460.0
581545.0 1092108.0 4582.0
582300.0 1092989.0 4545.0
580625.0 1091397.0 4627.0
581336.0 1092160.0 4520.0
581195.0 1092297.0 4471.0
579086.0 1090416.0 4585.0
578513.0 1089865.0 4487.0
578701.0 1090211.0 4584.0
580212.0 1091906.0 4462.0
578512.0 1090117.0 4535.0
580445.0 1092831.0 4487.0
580258.0 1092702.0 4464.0
580181.0 1092654.0 4471.0
580376.0 1093139.0 4616.0
582710.0 1093223.0 4540.0
582460.0 1093006.0 4508.0
582244.0 1092977.0 4553.0
582394.0 1091436.0 4455.0
582661.0 1090665.0 4568.0
582347.0 1090757.0 4464.0
581465.0 1093000.0 4621.0
582031.0 1090982.0 4481.0
582190.0 1090586.0 4580.0
581237.0 1092765.0 4627.0
581354.0 1092409.0 4618.0
581439.0 1092040.0 4510.0
581896.0 1090480.0 4558.0
581912.0 1090118.0 4475.0
582379.0 1088673.0 4477.0
580870.0 1092658.0 4561.0
581953.0 1089119.0 4614.0
582011.0 1088681.0 4452.0
580602.0 1092374.0 4496.0
580827.0 1091548.0 4514.0
580997.0 1091111.0 4631.0
581687.0 1088758.0 4449.0
580079.0 1092903.0 4583.0
580155.0 1092546.0 4497.0
580548.0 1091359.0 4552.0
580229.0 1090199.0 4544.0
579974.0 1090182.0 4537.0
579095.0 1089981.0 4586.0
579138.0 1089623.0 4496.0
578823.0 1089965.0 4542.0
578526.0 1090000.0 4476.0
580614.0 1093520.0 4537.0
579871.0 1092975.0 4634.0
581534.0 1093241.0 4602.0
582783.0 1093342.0 4559.0
582445.0 1093217.0 4601.0
581761.0 1093023.0 4568.0
582611.0 1093030.0 4452.0
582283.0 1092898.0 4512.0
581960.0 1092748.0 4636.0
581567.0 1092035.0 4550.0
582306.0 1091416.0 4453.0
581258.0 1091066.0 4445.0
581995.0 1090992.0 4451.0
578851.0 1089988.0 4546.0
581567.0 1090586.0 4443.0
580100.0 1090092.0 4458.0
579761.0 1089977.0 4508.0
579388.0 1089872.0 4531.0
583039.0 1090646.0 4605.0
582312.0 1090480.0 4550.0
580224.0 1089825.0 4542.0
581753.0 1089782.0 4585.0
583754.0 1090113.0 4588.0
582004.0 1089551.0 4490.0
580891.0 1089239.0 4480.0
582279.0 1088394.0 4542.0
580081.0 1092195.0 4255.0
580346.0 1092508.0 4374.0
580824.0 1092385.0 4257.0
580224.0 1090315.0 4361.0
580747.0 1091823.0 4276.0
580383.0 1089809.0 4329.0
581199.0 1092155.0 4435.0
582186.0 1088908.0 4353.0
582776.0 1089693.0 4408.0
583564.0 1090718.0 4316.0
582159.0 1088593.0 4436.0
582153.0 1088925.0 4408.0
583346.0 1091133.0 4246.0
582230.0 1090013.0 4283.0
582044.0 1090784.0 4427.0
581641.0 1091383.0 4298.0
581705.0 1091634.0 4399.0
581588.0 1091519.0 4372.0
581521.0 1091585.0 4375.0
580628.0 1090513.0 4321.0
581165.0 1091314.0 4372.0
581791.0 1092000.0 4353.0
579433.0 1090196.0 4421.0
580636.0 1091590.0 4380.0
580878.0 1092112.0 4241.0
580751.0 1092513.0 4243.0
580490.0 1092465.0 4277.0
580363.0 1092587.0 4403.0
583349.0 1090900.0 4399.0
583012.0 1090961.0 4398.0
582615.0 1091321.0 4273.0
582480.0 1091043.0 4392.0
582216.0 1091121.0 4389.0
581739.0 1091746.0 4391.0
581440.0 1091619.0 4309.0
581702.0 1090861.0 4394.0
582227.0 1089006.0 4343.0
580846.0 1092214.0 4270.0
581019.0 1091804.0 4279.0
581129.0 1091421.0 4262.0
581269.0 1091051.0 4303.0
580417.0 1092733.0 4424.0
578832.0 1089546.0 4417.0
578403.0 1089835.0 4425.0
580183.0 1092290.0 4394.0
582459.0 1092736.0 4343.0
581883.0 1091900.0 4357.0
581782.0 1091562.0 4428.0
581373.0 1091523.0 4270.0
581941.0 1091352.0 4368.0
582345.0 1091125.0 4402.0
581622.0 1090956.0 4365.0
578508.0 1089926.0 4426.0
582969.0 1091048.0 4325.0
582264.0 1090829.0 4403.0
581914.0 1090735.0 4369.0
578991.0 1089809.0 4368.0
578646.0 1089696.0 4384.0
583611.0 1090707.0 4332.0
582847.0 1089602.0 4381.0
582544.0 1089473.0 4318.0
582221.0 1089341.0 4425.0
580794.0 1088998.0 4278.0
582192.0 1089059.0 4270.0
581797.0 1088903.0 4415.0
582235.0 1088726.0 4376.0
581918.0 1088670.0 4309.0
580625.0 1092489.0 4201.0
580699.0 1092215.0 4171.0
580844.0 1092327.0 4181.0
581820.0 1092000.0 4236.0
582623.0 1089180.0 4077.0
583244.0 1091349.0 4079.0
582124.0 1092152.0 4128.0
580584.0 1092193.0 4122.0
579971.0 1092059.0 4096.0
581173.0 1093553.0 4223.0
583629.0 1090996.0 4206.0
583136.0 1091263.0 4125.0
582801.0 1091336.0 4201.0
579978.0 1092560.0 4206.0
580274.0 1092098.0 4185.0
582693.0 1091316.0 4171.0
583672.0 1091029.0 4157.0
581211.0 1090244.0 4202.0
582820.0 1089425.0 4039.0
580008.0 1092176.0 3932.0
580013.0 1092027.0 3987.0
580403.0 1093410.0 4023.0
582076.0 1092283.0 3920.0
583093.0 1091370.0 4032.0
582545.0 1088955.0 4026.0
580461.0 1093485.0 3888.0
582141.0 1092486.0 3898.0
582018.0 1092131.0 3985.0
580481.0 1093416.0 4024.0
581039.0 1089895.0 3855.0
580129.0 1092099.0 4002.0
581022.0 1091478.0 3959.0
581074.0 1090020.0 3906.0
582517.0 1089273.0 3968.0
581090.0 1091163.0 3651.0
580717.0 1088803.0 3649.0
580750.0 1088881.0 3820.0
582098.0 1092525.0 3818.0
582683.0 1088943.0 3772.0
580779.0 1088861.0 3701.0
580770.0 1088857.0 3683.0
580971.0 1089032.0 3640.0
580732.0 1088830.0 3734.0
580796.0 1088980.0 3748.0
581007.0 1091028.0 3822.0
582208.0 1092690.0 3816.0
582317.0 1092527.0 3788.0
581261.0 1089053.0 3734.0
582198.0 1092484.0 3783.0
580907.0 1089827.0 3679.0
582549.0 1089048.0 3764.0
581004.0 1091312.0 3454.0
582894.0 1092414.0 3455.0
580821.0 1089888.0 3628.0
582607.0 1092597.0 3608.0
579683.0 1089929.0 3515.0
582846.0 1092479.0 3456.0
582567.0 1092334.0 3519.0
583161.0 1089316.0 3503.0
582984.0 1089247.0 3609.0
581443.0 1089377.0 3586.0
580794.0 1089392.0 3591.0
580888.0 1088985.0 3549.0
582496.0 1092378.0 3611.0
581194.0 1091105.0 3557.0
581346.0 1089463.0 3491.0
581027.0 1089328.0 3558.0
580967.0 1088969.0 3575.0
582903.0 1089186.0 3628.0
580795.0 1088594.0 3583.0
579844.0 1089657.0 3261.0
581011.0 1091120.0 3378.0
580632.0 1091627.0 3435.0
579754.0 1090061.0 3386.0
579771.0 1089681.0 3242.0
580203.0 1089646.0 3091.0
581209.0 1091128.0 3196.0
580149.0 1089664.0 3203.0
580315.0 1089525.0 2959.0
