567784.0 1148571.0 7891.0
576261.0 1151941.0 8006.0
567315.0 1146263.0 8026.0
571649.0 1146701.0 7857.0
569436.0 1145701.0 7926.0
572072.0 1146582.0 7905.0
577305.0 1148151.0 7995.0
577248.0 1147527.0 7893.0
578867.0 1147897.0 8009.0
576319.0 1146621.0 8013.0
569996.0 1143931.0 8010.0
577301.0 1146853.0 7865.0
576462.0 1146487.0 7894.0
579437.0 1147422.0 8030.0
579112.0 1147321.0 7973.0
578783.0 1147226.0 7875.0
577661.0 1145803.0 7959.0
574334.0 1144451.0 7858.0
577794.0 1145543.0 7912.0
577746.0 1145293.0 7866.0
573713.0 1141306.0 8014.0
573361.0 1141173.0 8004.0
572974.0 1141098.0 7865.0
573768.0 1141155.0 7850.0
578293.0 1142183.0 8007.0
577143.0 1139782.0 8017.0
573578.0 1138447.0 8016.0
577258.0 1139661.0 7909.0
567537.0 1152393.0 7778.0
567643.0 1149343.0 7825.0
567835.0 1149139.0 7738.0
568083.0 1148757.0 7753.0
568804.0 1149237.0 7745.0
569370.0 1148204.0 7693.0
569743.0 1151974.0 7639.0
569839.0 1151731.0 7827.0
570287.0 1152805.0 7770.0
570624.0 1148833.0 7730.0
571200.0 1149194.0 7717.0
571395.0 1148894.0 7703.0
571714.0 1143032.0 7659.0
572208.0 1141399.0 7653.0
572248.0 1140446.0 7719.0
572507.0 1140229.0 7639.0
573319.0 1140421.0 7826.0
574417.0 1154040.0 7821.0
574464.0 1150920.0 7669.0
574580.0 1152544.0 7751.0
574375.0 1144111.0 7765.0
575106.0 1152902.0 7743.0
575138.0 1153648.0 7643.0
575250.0 1151651.0 7828.0
575328.0 1153319.0 7831.0
575450.0 1151424.0 7717.0
575521.0 1152867.0 7793.0
575505.0 1150952.0 7787.0
575678.0 1152507.0 7639.0
575974.0 1152490.0 7657.0
576089.0 1151575.0 7793.0
575938.0 1145483.0 7713.0
576475.0 1146355.0 7666.0
576492.0 1145222.0 7715.0
576574.0 1145238.0 7755.0
576939.0 1146884.0 7698.0
578355.0 1145288.0 7650.0
578114.0 1145188.0 7698.0
572767.0 1141152.0 7799.0
572436.0 1141198.0 7818.0
572256.0 1141168.0 7660.0
572285.0 1141400.0 7702.0
576795.0 1145221.0 7775.0
574112.0 1143416.0 7655.0
576413.0 1145248.0 7646.0
577327.0 1145988.0 7694.0
578767.0 1147136.0 7651.0
574370.0 1143950.0 7799.0
574007.0 1143997.0 7810.0
573593.0 1144185.0 7783.0
574537.0 1144848.0 7670.0
576250.0 1146365.0 7816.0
571930.0 1143072.0 7759.0
576831.0 1146984.0 7837.0
571595.0 1143047.0 7686.0
575844.0 1146972.0 7689.0
570293.0 1143613.0 7740.0
571593.0 1146083.0 7664.0
571033.0 1146085.0 7716.0
571661.0 1146782.0 7674.0
575397.0 1151447.0 7741.0
576082.0 1152343.0 7809.0
576546.0 1152673.0 7702.0
567437.0 1146042.0 7675.0
570502.0 1148284.0 7654.0
571348.0 1148932.0 7704.0
574855.0 1151567.0 7739.0
575725.0 1152259.0 7696.0
570633.0 1148706.0 7726.0
571111.0 1149061.0 7757.0
572600.0 1150178.0 7689.0
575883.0 1152723.0 7788.0
569467.0 1148216.0 7782.0
570358.0 1148783.0 7721.0
576134.0 1153537.0 7740.0
569956.0 1149199.0 7779.0
575133.0 1153112.0 7773.0
568012.0 1148638.0 7789.0
568009.0 1148903.0 7681.0
567892.0 1149200.0 7684.0
574373.0 1154073.0 7732.0
567381.0 1149616.0 7732.0
570377.0 1151901.0 7739.0
570532.0 1152263.0 7726.0
569751.0 1151949.0 7664.0
570462.0 1152780.0 7764.0
566457.0 1150683.0 7659.0
567721.0 1152039.0 7721.0
566895.0 1153374.0 7777.0
578891.0 1147163.0 7817.0
578521.0 1147449.0 7722.0
578218.0 1144925.0 7650.0
577399.0 1148078.0 7835.0
576096.0 1153604.0 7717.0
577352.0 1147116.0 7763.0
577434.0 1146655.0 7673.0
576162.0 1152375.0 7801.0
576249.0 1151405.0 7814.0
575824.0 1152386.0 7674.0
575986.0 1151489.0 7802.0
575041.0 1153463.0 7786.0
575091.0 1152986.0 7691.0
575409.0 1151502.0 7757.0
576595.0 1145074.0 7800.0
574763.0 1153178.0 7711.0
575800.0 1146897.0 7796.0
574219.0 1153858.0 7811.0
574688.0 1150972.0 7694.0
575777.0 1145298.0 7741.0
574084.0 1153292.0 7792.0
575465.0 1145289.0 7669.0
574967.0 1144991.0 7836.0
575633.0 1141262.0 7658.0
572451.0 1146002.0 7737.0
573412.0 1140353.0 7661.0
571995.0 1146407.0 7655.0
571275.0 1148865.0 7740.0
571689.0 1146553.0 7650.0
572650.0 1141339.0 7698.0
570982.0 1148954.0 7788.0
570060.0 1152815.0 7682.0
570094.0 1152403.0 7751.0
572258.0 1140124.0 7675.0
570987.0 1145943.0 7641.0
569754.0 1152112.0 7796.0
569823.0 1151697.0 7770.0
570327.0 1148537.0 7673.0
571636.0 1141114.0 7683.0
570019.0 1149041.0 7686.0
570122.0 1148592.0 7719.0
571451.0 1141178.0 7769.0
569822.0 1148696.0 7688.0
569210.0 1148948.0 7679.0
568915.0 1148968.0 7689.0
569487.0 1145608.0 7792.0
567902.0 1148688.0 7813.0
567006.0 1152822.0 7794.0
567625.0 1149013.0 7798.0
566576.0 1152149.0 7789.0
566537.0 1150563.0 7790.0
566272.0 1151000.0 7827.0
567523.0 1151756.0 7746.0
566020.0 1151029.0 7825.0
570754.0 1152886.0 7711.0
570378.0 1152773.0 7784.0
566210.0 1150876.0 7708.0
566356.0 1150704.0 7720.0
566738.0 1150580.0 7826.0
575398.0 1153518.0 7649.0
575014.0 1153339.0 7748.0
574628.0 1153154.0 7793.0
567644.0 1150074.0 7809.0
575388.0 1153226.0 7730.0
575824.0 1153098.0 7835.0
567589.0 1149491.0 7818.0
575405.0 1152727.0 7738.0
567529.0 1149280.0 7752.0
567683.0 1149131.0 7660.0
576332.0 1152549.0 7826.0
575964.0 1152485.0 7664.0
567860.0 1148947.0 7654.0
576238.0 1152293.0 7754.0
575911.0 1152139.0 7722.0
568904.0 1149080.0 7772.0
568074.0 1148705.0 7714.0
569586.0 1149128.0 7819.0
569176.0 1148993.0 7689.0
574561.0 1151068.0 7642.0
569836.0 1148965.0 7776.0
573012.0 1150098.0 7712.0
570086.0 1148508.0 7705.0
569751.0 1148355.0 7732.0
576942.0 1150629.0 7639.0
567733.0 1146152.0 7740.0
569747.0 1145945.0 7659.0
571043.0 1144958.0 7710.0
577395.0 1147390.0 7720.0
577360.0 1147142.0 7769.0
576465.0 1146369.0 7674.0
573136.0 1144641.0 7767.0
575263.0 1145196.0 7727.0
574859.0 1145047.0 7697.0
573297.0 1144454.0 7652.0
575743.0 1145188.0 7661.0
577038.0 1145269.0 7754.0
576662.0 1145094.0 7787.0
571895.0 1142883.0 7670.0
571593.0 1142766.0 7679.0
572097.0 1141683.0 7713.0
571505.0 1140506.0 7792.0
572279.0 1140116.0 7659.0
577388.0 1139582.0 7695.0
568435.0 1148390.0 7465.0
569006.0 1148879.0 7621.0
569198.0 1148482.0 7566.0
569498.0 1152033.0 7514.0
570189.0 1143800.0 7528.0
570894.0 1152225.0 7519.0
571015.0 1145204.0 7468.0
571328.0 1152301.0 7631.0
570919.0 1141173.0 7519.0
571767.0 1146430.0 7630.0
571859.0 1138600.0 7473.0
572409.0 1146546.0 7616.0
573620.0 1151564.0 7443.0
573608.0 1143724.0 7446.0
574472.0 1153175.0 7529.0
574695.0 1153324.0 7585.0
574992.0 1153646.0 7477.0
574390.0 1143321.0 7530.0
575042.0 1151319.0 7623.0
575143.0 1152075.0 7484.0
575207.0 1150083.0 7513.0
575273.0 1150856.0 7539.0
575605.0 1152110.0 7472.0
575140.0 1145241.0 7607.0
575702.0 1151747.0 7459.0
575424.0 1145280.0 7614.0
575744.0 1142968.0 7559.0
576683.0 1150244.0 7485.0
576885.0 1150400.0 7530.0
577010.0 1150289.0 7522.0
576906.0 1146742.0 7552.0
577353.0 1150277.0 7467.0
577491.0 1150179.0 7495.0
577393.0 1147346.0 7567.0
577444.0 1146117.0 7624.0
578276.0 1147884.0 7477.0
576457.0 1141764.0 7631.0
576612.0 1142564.0 7461.0
576421.0 1142613.0 7442.0
573702.0 1140660.0 7461.0
572381.0 1140703.0 7456.0
578356.0 1145818.0 7495.0
572316.0 1141525.0 7630.0
574569.0 1143312.0 7442.0
574327.0 1143240.0 7500.0
576889.0 1145571.0 7634.0
576181.0 1145295.0 7578.0
578476.0 1147433.0 7559.0
575452.0 1145319.0 7577.0
574993.0 1145187.0 7528.0
573240.0 1144642.0 7462.0
574418.0 1145892.0 7441.0
571536.0 1143905.0 7628.0
570358.0 1143807.0 7561.0
573009.0 1145900.0 7544.0
577245.0 1150204.0 7518.0
576933.0 1150156.0 7477.0
571715.0 1146383.0 7598.0
576663.0 1150159.0 7448.0
575225.0 1150569.0 7476.0
569822.0 1147091.0 7521.0
573292.0 1149743.0 7483.0
574988.0 1151188.0 7559.0
574836.0 1151215.0 7483.0
575465.0 1152271.0 7612.0
569326.0 1148270.0 7562.0
569062.0 1148404.0 7493.0
570472.0 1149481.0 7583.0
569092.0 1148789.0 7616.0
568332.0 1148500.0 7548.0
574788.0 1153390.0 7605.0
574720.0 1153514.0 7496.0
566565.0 1148395.0 7473.0
571257.0 1152185.0 7633.0
571257.0 1152426.0 7535.0
570112.0 1151936.0 7604.0
569709.0 1152100.0 7541.0
564775.0 1149126.0 7484.0
564919.0 1149291.0 7463.0
564752.0 1149356.0 7532.0
565394.0 1150081.0 7574.0
566313.0 1150724.0 7534.0
567157.0 1151857.0 7499.0
566144.0 1151386.0 7595.0
566617.0 1151712.0 7448.0
578319.0 1147832.0 7490.0
578248.0 1145248.0 7525.0
577620.0 1147648.0 7622.0
577546.0 1146735.0 7472.0
576196.0 1152633.0 7521.0
576661.0 1150313.0 7525.0
575333.0 1152914.0 7480.0
575602.0 1151541.0 7625.0
575112.0 1152485.0 7516.0
574875.0 1152359.0 7512.0
575035.0 1150103.0 7461.0
575651.0 1147272.0 7633.0
574154.0 1153361.0 7441.0
575138.0 1145212.0 7630.0
573688.0 1151501.0 7472.0
574396.0 1143266.0 7459.0
574083.0 1144069.0 7487.0
573518.0 1145516.0 7495.0
572723.0 1145793.0 7471.0
572596.0 1145881.0 7562.0
571010.0 1152016.0 7529.0
570717.0 1151814.0 7490.0
572277.0 1141450.0 7561.0
572475.0 1140113.0 7567.0
570107.0 1151900.0 7513.0
570500.0 1149459.0 7450.0
569990.0 1151735.0 7599.0
570526.0 1148363.0 7511.0
572024.0 1140269.0 7628.0
569495.0 1151914.0 7520.0
571489.0 1140702.0 7637.0
569212.0 1148457.0 7480.0
570133.0 1143819.0 7633.0
568952.0 1148492.0 7554.0
569138.0 1147516.0 7480.0
568297.0 1148438.0 7469.0
568391.0 1147967.0 7502.0
568065.0 1148736.0 7632.0
568154.0 1148273.0 7558.0
567780.0 1149155.0 7633.0
566513.0 1148365.0 7616.0
566395.0 1148347.0 7570.0
564879.0 1149324.0 7450.0
566688.0 1152208.0 7600.0
570298.0 1152995.0 7603.0
570019.0 1151863.0 7564.0
564734.0 1149429.0 7610.0
574670.0 1153603.0 7456.0
574003.0 1153289.0 7612.0
575049.0 1152856.0 7628.0
574965.0 1152605.0 7550.0
574566.0 1152477.0 7439.0
575521.0 1152636.0 7465.0
575166.0 1152453.0 7502.0
575609.0 1152357.0 7570.0
573436.0 1150625.0 7592.0
572755.0 1150368.0 7485.0
569024.0 1148705.0 7549.0
569058.0 1148470.0 7470.0
568289.0 1148082.0 7581.0
569319.0 1148258.0 7510.0
577086.0 1150468.0 7535.0
576727.0 1150305.0 7500.0
567306.0 1145804.0 7616.0
571670.0 1146526.0 7609.0
575831.0 1146868.0 7448.0
578741.0 1147797.0 7480.0
578435.0 1147665.0 7585.0
573671.0 1145509.0 7466.0
577547.0 1146831.0 7589.0
576104.0 1146293.0 7465.0
577472.0 1146545.0 7532.0
574946.0 1145484.0 7443.0
570486.0 1143575.0 7591.0
571735.0 1143835.0 7520.0
570950.0 1143162.0 7557.0
574245.0 1143427.0 7523.0
572403.0 1141963.0 7438.0
570912.0 1141302.0 7462.0
572089.0 1141510.0 7452.0
571315.0 1141169.0 7531.0
573312.0 1141070.0 7518.0
573567.0 1140423.0 7581.0
565949.0 1151119.0 7264.0
567339.0 1148160.0 7369.0
569055.0 1148184.0 7374.0
570409.0 1152213.0 7308.0
570432.0 1143950.0 7408.0
571429.0 1143192.0 7356.0
571661.0 1146290.0 7264.0
571475.0 1140732.0 7252.0
571592.0 1143132.0 7389.0
571576.0 1141104.0 7408.0
571649.0 1138808.0 7244.0
571823.0 1141308.0 7274.0
571715.0 1138413.0 7333.0
571884.0 1140587.0 7372.0
571936.0 1141292.0 7326.0
572637.0 1150489.0 7247.0
571974.0 1139341.0 7350.0
572072.0 1140986.0 7395.0
572213.0 1138940.0 7245.0
573317.0 1153796.0 7335.0
573399.0 1155093.0 7256.0
573558.0 1150222.0 7340.0
573632.0 1150377.0 7399.0
574461.0 1152433.0 7354.0
574305.0 1143832.0 7428.0
574933.0 1152303.0 7360.0
574643.0 1142530.0 7271.0
575463.0 1150707.0 7437.0
575855.0 1151779.0 7355.0
575298.0 1143056.0 7294.0
575687.0 1146717.0 7257.0
575856.0 1146736.0 7349.0
575929.0 1147486.0 7360.0
576266.0 1141701.0 7400.0
577150.0 1150377.0 7402.0
576903.0 1145885.0 7335.0
577024.0 1146042.0 7358.0
577318.0 1149455.0 7382.0
577500.0 1146402.0 7264.0
578664.0 1147007.0 7369.0
578890.0 1146860.0 7282.0
579310.0 1146886.0 7244.0
579837.0 1146552.0 7251.0
579992.0 1147373.0 7356.0
571640.0 1138469.0 7269.0
571774.0 1139037.0 7364.0
572643.0 1140082.0 7416.0
578875.0 1145864.0 7291.0
579791.0 1146718.0 7275.0
572090.0 1140704.0 7371.0
580215.0 1147317.0 7323.0
571835.0 1140706.0 7328.0
579237.0 1146682.0 7317.0
580193.0 1147520.0 7391.0
571940.0 1140959.0 7341.0
578798.0 1146527.0 7422.0
579251.0 1146815.0 7297.0
571953.0 1141115.0 7311.0
578674.0 1146564.0 7341.0
579110.0 1146874.0 7296.0
571872.0 1141225.0 7308.0
578836.0 1146788.0 7298.0
571440.0 1141182.0 7429.0
571919.0 1141494.0 7325.0
577136.0 1145981.0 7433.0
577627.0 1146314.0 7251.0
578535.0 1147112.0 7421.0
573698.0 1143846.0 7417.0
575037.0 1144883.0 7254.0
577699.0 1147257.0 7299.0
574964.0 1145283.0 7410.0
571427.0 1143304.0 7295.0
575726.0 1146942.0 7432.0
575999.0 1147240.0 7305.0
570272.0 1143958.0 7294.0
577329.0 1149476.0 7373.0
576714.0 1149271.0 7297.0
577430.0 1150147.0 7395.0
576329.0 1150019.0 7264.0
574818.0 1150190.0 7337.0
575116.0 1150702.0 7409.0
574968.0 1150675.0 7291.0
573730.0 1149963.0 7286.0
575066.0 1150946.0 7243.0
573598.0 1150480.0 7355.0
572618.0 1150350.0 7357.0
574843.0 1152008.0 7274.0
568972.0 1147901.0 7258.0
574562.0 1152149.0 7277.0
568636.0 1148002.0 7272.0
574316.0 1152238.0 7248.0
574452.0 1152760.0 7437.0
573993.0 1152606.0 7332.0
574402.0 1152960.0 7281.0
567346.0 1148182.0 7418.0
567190.0 1148158.0 7425.0
570880.0 1152142.0 7422.0
570274.0 1152215.0 7405.0
569322.0 1151989.0 7297.0
569783.0 1152348.0 7357.0
570225.0 1152631.0 7324.0
569767.0 1152469.0 7297.0
569706.0 1152639.0 7266.0
565811.0 1151026.0 7262.0
565940.0 1151396.0 7346.0
579790.0 1147440.0 7254.0
579989.0 1146632.0 7293.0
579674.0 1146751.0 7345.0
579361.0 1146922.0 7320.0
578959.0 1145734.0 7322.0
578378.0 1145389.0 7320.0
577611.0 1147150.0 7341.0
576860.0 1150235.0 7381.0
576953.0 1149363.0 7253.0
576367.0 1149984.0 7266.0
576186.0 1149322.0 7269.0
576890.0 1145845.0 7347.0
575178.0 1153401.0 7286.0
575126.0 1152003.0 7290.0
575402.0 1150633.0 7386.0
574843.0 1151897.0 7244.0
575798.0 1147069.0 7388.0
575865.0 1146650.0 7411.0
574449.0 1152852.0 7391.0
574537.0 1152388.0 7362.0
574637.0 1151961.0 7290.0
574317.0 1152386.0 7351.0
574404.0 1151929.0 7333.0
574733.0 1150038.0 7325.0
576320.0 1141595.0 7347.0
575711.0 1143135.0 7269.0
575854.0 1142744.0 7280.0
575412.0 1141673.0 7285.0
573377.0 1151522.0 7337.0
574424.0 1145399.0 7270.0
575214.0 1141554.0 7364.0
574998.0 1141096.0 7305.0
573182.0 1149814.0 7379.0
574155.0 1144183.0 7239.0
573180.0 1144700.0 7424.0
572448.0 1141801.0 7431.0
570205.0 1152529.0 7357.0
570308.0 1152062.0 7368.0
572284.0 1140518.0 7258.0
572460.0 1139755.0 7296.0
571857.0 1141491.0 7311.0
571966.0 1141037.0 7301.0
572058.0 1140572.0 7349.0
569865.0 1152199.0 7403.0
571043.0 1144980.0 7431.0
571674.0 1141620.0 7289.0
571753.0 1141169.0 7336.0
571832.0 1140721.0 7291.0
571611.0 1140644.0 7317.0
569161.0 1152059.0 7324.0
571663.0 1138427.0 7408.0
570308.0 1143818.0 7378.0
569230.0 1147989.0 7262.0
569665.0 1145629.0 7393.0
568925.0 1147936.0 7277.0
568539.0 1148417.0 7377.0
568597.0 1147970.0 7320.0
565829.0 1151543.0 7260.0
565755.0 1151651.0 7273.0
570211.0 1152315.0 7335.0
570991.0 1152017.0 7409.0
574281.0 1152604.0 7415.0
574347.0 1152200.0 7267.0
575200.0 1152252.0 7393.0
574834.0 1152106.0 7384.0
575483.0 1152079.0 7436.0
575035.0 1151955.0 7238.0
574254.0 1151593.0 7305.0
573883.0 1151457.0 7353.0
575654.0 1151726.0 7248.0
568292.0 1148417.0 7400.0
573395.0 1150407.0 7370.0
568668.0 1148336.0 7358.0
568893.0 1148133.0 7331.0
568517.0 1147924.0 7403.0
575593.0 1150750.0 7280.0
569303.0 1148021.0 7261.0
570812.0 1148343.0 7326.0
569644.0 1147885.0 7278.0
576356.0 1150232.0 7383.0
576928.0 1150259.0 7429.0
576547.0 1150122.0 7333.0
577236.0 1150233.0 7249.0
571626.0 1146359.0 7269.0
575877.0 1147470.0 7320.0
578092.0 1147754.0 7368.0
578057.0 1147599.0 7355.0
575830.0 1146658.0 7378.0
577595.0 1147172.0 7347.0
570154.0 1144084.0 7246.0
573809.0 1145373.0 7250.0
573461.0 1145213.0 7372.0
576720.0 1146302.0 7383.0
579360.0 1146763.0 7286.0
574050.0 1144266.0 7263.0
571505.0 1143143.0 7379.0
574212.0 1144038.0 7249.0
573490.0 1143717.0 7329.0
578352.0 1145416.0 7261.0
574238.0 1143761.0 7309.0
574248.0 1143281.0 7424.0
572699.0 1142114.0 7361.0
571680.0 1141393.0 7321.0
576058.0 1142920.0 7297.0
571933.0 1141251.0 7257.0
571636.0 1141072.0 7339.0
571240.0 1140868.0 7425.0
576542.0 1142780.0 7295.0
572124.0 1140966.0 7264.0
571757.0 1140802.0 7283.0
572137.0 1140666.0 7263.0
570982.0 1140194.0 7299.0
573710.0 1140818.0 7336.0
573890.0 1140650.0 7393.0
572420.0 1140006.0 7403.0
566536.0 1150798.0 7146.0
568747.0 1147732.0 7108.0
568933.0 1147742.0 7149.0
569134.0 1147578.0 7088.0
569280.0 1147680.0 7207.0
570055.0 1144037.0 7091.0
570165.0 1144089.0 7143.0
571638.0 1142330.0 7082.0
571643.0 1140362.0 7110.0
571738.0 1141814.0 7174.0
571717.0 1140626.0 7214.0
571767.0 1141439.0 7227.0
571725.0 1139644.0 7235.0
571772.0 1140480.0 7220.0
571807.0 1139098.0 7217.0
572908.0 1154629.0 7232.0
572183.0 1138815.0 7086.0
572281.0 1140500.0 7216.0
573107.0 1151125.0 7157.0
573295.0 1155110.0 7195.0
572262.0 1138267.0 7138.0
573797.0 1152251.0 7074.0
573879.0 1151976.0 7165.0
573373.0 1140000.0 7050.0
574287.0 1152250.0 7227.0
574361.0 1152949.0 7174.0
574138.0 1144255.0 7163.0
574753.0 1151697.0 7044.0
574868.0 1143320.0 7104.0
574888.0 1144190.0 7156.0
575544.0 1152464.0 7191.0
574954.0 1142752.0 7107.0
574981.0 1143476.0 7133.0
575078.0 1144200.0 7095.0
575104.0 1142797.0 7079.0
575360.0 1146127.0 7131.0
575974.0 1153312.0 7083.0
576087.0 1151816.0 7163.0
576227.0 1149971.0 7207.0
576453.0 1148916.0 7097.0
576834.0 1146929.0 7205.0
577218.0 1145809.0 7204.0
577401.0 1147292.0 7075.0
577328.0 1145645.0 7105.0
577476.0 1147324.0 7156.0
577595.0 1145375.0 7053.0
577728.0 1147552.0 7153.0
578072.0 1146649.0 7117.0
578517.0 1146435.0 7073.0
578689.0 1146131.0 7044.0
579175.0 1147141.0 7078.0
573673.0 1139594.0 7094.0
572104.0 1138763.0 7144.0
575147.0 1141465.0 7109.0
572285.0 1139361.0 7114.0
573273.0 1140130.0 7125.0
571780.0 1139237.0 7170.0
575552.0 1142492.0 7077.0
571717.0 1139731.0 7077.0
575271.0 1142461.0 7049.0
578683.0 1145454.0 7190.0
574743.0 1142457.0 7115.0
578021.0 1145107.0 7046.0
578418.0 1145499.0 7221.0
571705.0 1140255.0 7089.0
577999.0 1145338.0 7186.0
579795.0 1146841.0 7050.0
574381.0 1142524.0 7047.0
571102.0 1140243.0 7172.0
571516.0 1140577.0 7221.0
577416.0 1145295.0 7107.0
578855.0 1146341.0 7060.0
574711.0 1143641.0 7219.0
577928.0 1146220.0 7175.0
578406.0 1146585.0 7123.0
571794.0 1141638.0 7233.0
578132.0 1146632.0 7070.0
571650.0 1141812.0 7153.0
577122.0 1146124.0 7057.0
580111.0 1148538.0 7061.0
576012.0 1145569.0 7137.0
576496.0 1145904.0 7112.0
578193.0 1147601.0 7184.0
577950.0 1147600.0 7072.0
574854.0 1145342.0 7179.0
571398.0 1143075.0 7220.0
575304.0 1146150.0 7125.0
575088.0 1146095.0 7057.0
574943.0 1146124.0 7053.0
575086.0 1146444.0 7126.0
576595.0 1149347.0 7212.0
571128.0 1145329.0 7151.0
576429.0 1149373.0 7121.0
576064.0 1149313.0 7142.0
571548.0 1146256.0 7191.0
576130.0 1149991.0 7125.0
576010.0 1150054.0 7043.0
570918.0 1146605.0 7165.0
569815.0 1147128.0 7103.0
573663.0 1149971.0 7086.0
574145.0 1150309.0 7087.0
575392.0 1151786.0 7194.0
573653.0 1150661.0 7054.0
575016.0 1151814.0 7236.0
569138.0 1147654.0 7163.0
573298.0 1151089.0 7134.0
573698.0 1151459.0 7210.0
575491.0 1152709.0 7059.0
573858.0 1151895.0 7169.0
574323.0 1153048.0 7062.0
574448.0 1153319.0 7038.0
570233.0 1152344.0 7147.0
573229.0 1154701.0 7073.0
569140.0 1152082.0 7121.0
569876.0 1153035.0 7109.0
565569.0 1151035.0 7176.0
565653.0 1151581.0 7111.0
579803.0 1146479.0 7127.0
579037.0 1146871.0 7181.0
578573.0 1145965.0 7189.0
578574.0 1145588.0 7146.0
577984.0 1147483.0 7231.0
578072.0 1146577.0 7051.0
578269.0 1145749.0 7146.0
577090.0 1150240.0 7057.0
577742.0 1147062.0 7136.0
577792.0 1146587.0 7040.0
577936.0 1146129.0 7181.0
577745.0 1146243.0 7224.0
577389.0 1147104.0 7169.0
577529.0 1146277.0 7145.0
577578.0 1145870.0 7039.0
576547.0 1149895.0 7041.0
577343.0 1146187.0 7205.0
577485.0 1145283.0 7072.0
576957.0 1146657.0 7177.0
577137.0 1145751.0 7169.0
577204.0 1145301.0 7126.0
575522.0 1152781.0 7071.0
576055.0 1149723.0 7085.0
576228.0 1148850.0 7111.0
576725.0 1146253.0 7170.0
575290.0 1152387.0 7089.0
575397.0 1151965.0 7234.0
576502.0 1146061.0 7147.0
574514.0 1153190.0 7133.0
575857.0 1146224.0 7120.0
576304.0 1142699.0 7145.0
575335.0 1146234.0 7054.0
574066.0 1151872.0 7168.0
573778.0 1151657.0 7126.0
575481.0 1142888.0 7227.0
573016.0 1154397.0 7176.0
573254.0 1153444.0 7158.0
573603.0 1151090.0 7199.0
575079.0 1143058.0 7056.0
574667.0 1143726.0 7095.0
574775.0 1143292.0 7145.0
574867.0 1142879.0 7184.0
573172.0 1151057.0 7220.0
574297.0 1144222.0 7052.0
574462.0 1143757.0 7125.0
573921.0 1145104.0 7164.0
574514.0 1142292.0 7172.0
574571.0 1141853.0 7148.0
574646.0 1141404.0 7112.0
574402.0 1141851.0 7228.0
574527.0 1141036.0 7233.0
573542.0 1144584.0 7084.0
573632.0 1140710.0 7206.0
573894.0 1139358.0 7064.0
569848.0 1152821.0 7186.0
570829.0 1146588.0 7124.0
571705.0 1141940.0 7147.0
569662.0 1152699.0 7170.0
570757.0 1146435.0 7067.0
571522.0 1142109.0 7043.0
571843.0 1140249.0 7055.0
572091.0 1138831.0 7132.0
572187.0 1138352.0 7181.0
571171.0 1142800.0 7093.0
571827.0 1139303.0 7207.0
571861.0 1138852.0 7088.0
570042.0 1147622.0 7049.0
571602.0 1139257.0 7089.0
571195.0 1140242.0 7211.0
570156.0 1144235.0 7039.0
569249.0 1147519.0 7060.0
573320.0 1155147.0 7042.0
566597.0 1152168.0 7058.0
573250.0 1154824.0 7084.0
572875.0 1154601.0 7237.0
569840.0 1152959.0 7137.0
568833.0 1152280.0 7120.0
575678.0 1153086.0 7091.0
574387.0 1151998.0 7110.0
574030.0 1151871.0 7118.0
573734.0 1151626.0 7235.0
574638.0 1151820.0 7205.0
575409.0 1151914.0 7172.0
574631.0 1151630.0 7039.0
573550.0 1151111.0 7135.0
574536.0 1151010.0 7112.0
569234.0 1147725.0 7149.0
569401.0 1147603.0 7039.0
575970.0 1150146.0 7188.0
570080.0 1147670.0 7058.0
576149.0 1150016.0 7143.0
576154.0 1149793.0 7101.0
576118.0 1149439.0 7213.0
576554.0 1149369.0 7124.0
576206.0 1149221.0 7130.0
576392.0 1149038.0 7055.0
569732.0 1145852.0 7218.0
571259.0 1146293.0 7057.0
576976.0 1147119.0 7227.0
575109.0 1146459.0 7112.0
572819.0 1145523.0 7042.0
578297.0 1147576.0 7071.0
577932.0 1147393.0 7173.0
576812.0 1146858.0 7166.0
577886.0 1147163.0 7088.0
576771.0 1146637.0 7178.0
575653.0 1146232.0 7116.0
577031.0 1146540.0 7111.0
577832.0 1146558.0 7061.0
577453.0 1146367.0 7152.0
578961.0 1146696.0 7051.0
577899.0 1146249.0 7089.0
577148.0 1145927.0 7064.0
579838.0 1146672.0 7180.0
578051.0 1145975.0 7096.0
577314.0 1145683.0 7070.0
577270.0 1145371.0 7062.0
574923.0 1144429.0 7041.0
574567.0 1143965.0 7096.0
574581.0 1143749.0 7120.0
574611.0 1143539.0 7160.0
574826.0 1143409.0 7061.0
575268.0 1143307.0 7060.0
574910.0 1143172.0 7066.0
571620.0 1141744.0 7192.0
575513.0 1143017.0 7234.0
575678.0 1142800.0 7205.0
576147.0 1142681.0 7118.0
571755.0 1140562.0 7146.0
575274.0 1141780.0 7148.0
574919.0 1141619.0 7172.0
572288.0 1140575.0 7121.0
575144.0 1141545.0 7206.0
573298.0 1140729.0 7186.0
570710.0 1139696.0 7067.0
573110.0 1140106.0 7054.0
572414.0 1139740.0 7160.0
572038.0 1139586.0 7235.0
571701.0 1139429.0 7186.0
573517.0 1139896.0 7131.0
571729.0 1139088.0 7188.0
571695.0 1138814.0 7110.0
572178.0 1138433.0 7085.0
566516.0 1152072.0 6946.0
566670.0 1152238.0 6921.0
568998.0 1152157.0 7007.0
569566.0 1147366.0 6971.0
569699.0 1145877.0 6847.0
569751.0 1147267.0 6906.0
570269.0 1153145.0 6930.0
570653.0 1153470.0 6875.0
570949.0 1145253.0 6923.0
571428.0 1146122.0 6984.0
571508.0 1142378.0 6953.0
571474.0 1139048.0 6960.0
571584.0 1138919.0 6872.0
571640.0 1139023.0 6969.0
571721.0 1139842.0 7013.0
572837.0 1148937.0 6870.0
573356.0 1154329.0 6933.0
573446.0 1154408.0 6983.0
572443.0 1138424.0 6848.0
572730.0 1140186.0 6950.0
573596.0 1150027.0 6903.0
573689.0 1152434.0 7002.0
572807.0 1139472.0 6907.0
573049.0 1139929.0 6842.0
574062.0 1149916.0 6866.0
574223.0 1153103.0 6903.0
574197.0 1149422.0 6899.0
574498.0 1153630.0 6905.0
573554.0 1139540.0 6973.0
574370.0 1149354.0 6938.0
574563.0 1151632.0 6924.0
573749.0 1139179.0 7018.0
574328.0 1145072.0 6898.0
574045.0 1139394.0 6906.0
574708.0 1146631.0 6912.0
575050.0 1151596.0 6866.0
574925.0 1146574.0 6967.0
575447.0 1153627.0 6854.0
575563.0 1151626.0 6948.0
575669.0 1149968.0 6839.0
575887.0 1152855.0 6862.0
575801.0 1150135.0 6876.0
575958.0 1152523.0 6981.0
575259.0 1142402.0 6925.0
575843.0 1149235.0 6921.0
576018.0 1152569.0 6996.0
576133.0 1153393.0 6964.0
575384.0 1142307.0 6964.0
575758.0 1146010.0 6869.0
575597.0 1141753.0 6916.0
575888.0 1142050.0 6991.0
576279.0 1146368.0 6942.0
576503.0 1145924.0 6911.0
576611.0 1146614.0 6873.0
576720.0 1148754.0 7027.0
576820.0 1147142.0 6952.0
577689.0 1148122.0 6876.0
577515.0 1145535.0 6967.0
577733.0 1146852.0 7014.0
577779.0 1145268.0 6969.0
577947.0 1146968.0 6975.0
578226.0 1147497.0 6931.0
578319.0 1146383.0 7032.0
578406.0 1147137.0 6967.0
578667.0 1147291.0 6883.0
578947.0 1146070.0 6941.0
579185.0 1146315.0 6944.0
579312.0 1146064.0 6932.0
579675.0 1147032.0 6943.0
575812.0 1141697.0 6919.0
575629.0 1141734.0 6907.0
575506.0 1142142.0 6974.0
571567.0 1139218.0 6951.0
572875.0 1140208.0 6907.0
575162.0 1142046.0 6846.0
575247.0 1142775.0 7021.0
578921.0 1146047.0 7007.0
571451.0 1140187.0 6897.0
577855.0 1145334.0 6942.0
578857.0 1146153.0 6982.0
575665.0 1143722.0 6859.0
577406.0 1145384.0 7023.0
578284.0 1146078.0 7031.0
579667.0 1147110.0 6894.0
577396.0 1145476.0 7027.0
579375.0 1147110.0 7027.0
579074.0 1147307.0 6892.0
578140.0 1146872.0 6948.0
578655.0 1147286.0 6882.0
577004.0 1146237.0 6893.0
577905.0 1146965.0 6941.0
578371.0 1147346.0 6905.0
571577.0 1142244.0 7019.0
576020.0 1145718.0 6905.0
571602.0 1142486.0 7005.0
574067.0 1144423.0 6906.0
575523.0 1145603.0 6941.0
571333.0 1142452.0 6850.0
575823.0 1145955.0 6839.0
577660.0 1147478.0 6895.0
571329.0 1142682.0 6872.0
573554.0 1144390.0 6892.0
575753.0 1146258.0 7019.0
577555.0 1147598.0 6863.0
574877.0 1146426.0 7035.0
574865.0 1146581.0 6984.0
572858.0 1145258.0 6975.0
574852.0 1146756.0 6876.0
570842.0 1145129.0 6957.0
575883.0 1149344.0 7019.0
571365.0 1146221.0 7031.0
575721.0 1149569.0 6879.0
575614.0 1149649.0 6840.0
574324.0 1149470.0 7035.0
574816.0 1149767.0 6879.0
574474.0 1149703.0 6863.0
572844.0 1148739.0 6971.0
574229.0 1149791.0 6865.0
574730.0 1150560.0 6978.0
574670.0 1150648.0 6963.0
576024.0 1151784.0 7032.0
575878.0 1151736.0 6991.0
569393.0 1147437.0 7016.0
574632.0 1151379.0 6953.0
576066.0 1152468.0 6926.0
574496.0 1151536.0 6868.0
572897.0 1150681.0 6850.0
575068.0 1152303.0 6986.0
575890.0 1153009.0 6992.0
576317.0 1153299.0 6955.0
573424.0 1151461.0 7023.0
575810.0 1153224.0 6863.0
573624.0 1152178.0 6894.0
575368.0 1153573.0 7023.0
573905.0 1152648.0 6850.0
574088.0 1152944.0 6920.0
574141.0 1153146.0 6840.0
574542.0 1153529.0 6958.0
573297.0 1153954.0 6885.0
573205.0 1154224.0 6954.0
573357.0 1154515.0 6885.0
570289.0 1152715.0 6959.0
569264.0 1152277.0 6993.0
569318.0 1152397.0 6930.0
570603.0 1153335.0 6952.0
566463.0 1150801.0 7000.0
568862.0 1152435.0 6841.0
565245.0 1151500.0 6879.0
579877.0 1148585.0 6978.0
579666.0 1148426.0 6890.0
579292.0 1146400.0 6913.0
578819.0 1147255.0 6849.0
579053.0 1146450.0 7000.0
579102.0 1145994.0 6933.0
578760.0 1146189.0 6967.0
578184.0 1147350.0 6908.0
578285.0 1146891.0 6948.0
577972.0 1147006.0 6993.0
578152.0 1146155.0 7029.0
577629.0 1147533.0 7016.0
576188.0 1153628.0 6899.0
577813.0 1145282.0 6939.0
576109.0 1153225.0 6861.0
577593.0 1145417.0 6849.0
575918.0 1153109.0 6943.0
577372.0 1145701.0 7019.0
577494.0 1144797.0 6850.0
575742.0 1152787.0 6947.0
575862.0 1151872.0 6910.0
577212.0 1144850.0 6887.0
575625.0 1151860.0 6974.0
576507.0 1147063.0 6982.0
576329.0 1146463.0 6954.0
574586.0 1151480.0 6913.0
574529.0 1150468.0 7020.0
576043.0 1142496.0 7036.0
574072.0 1151469.0 7026.0
575060.0 1146172.0 6963.0
575811.0 1142254.0 6977.0
575858.0 1141838.0 6961.0
573238.0 1154476.0 7008.0
573270.0 1154001.0 6887.0
573754.0 1151186.0 6872.0
573976.0 1150245.0 7033.0
574057.0 1149835.0 6996.0
575442.0 1142409.0 6974.0
575491.0 1141947.0 6872.0
574653.0 1144894.0 6905.0
574954.0 1143522.0 6993.0
575109.0 1142557.0 6954.0
575204.0 1142101.0 6938.0
574916.0 1142416.0 7004.0
574093.0 1145110.0 6913.0
574622.0 1142351.0 6945.0
572954.0 1144664.0 6864.0
573263.0 1139885.0 6981.0
570503.0 1153439.0 6850.0
572935.0 1139923.0 6841.0
570393.0 1152710.0 6982.0
570441.0 1152252.0 6843.0
571018.0 1145201.0 6863.0
571523.0 1142366.0 6942.0
572259.0 1138666.0 6929.0
571357.0 1142587.0 6887.0
571549.0 1140178.0 6913.0
571390.0 1140214.0 7005.0
571585.0 1138794.0 6877.0
568957.0 1152537.0 7001.0
569700.0 1148151.0 7023.0
570422.0 1143924.0 6966.0
571375.0 1138820.0 6850.0
569522.0 1147332.0 6867.0
569734.0 1145958.0 6895.0
570670.0 1139572.0 7036.0
567494.0 1152260.0 6975.0
573299.0 1154617.0 6989.0
573322.0 1154357.0 6947.0
573297.0 1154101.0 6909.0
573257.0 1153837.0 6889.0
570500.0 1152581.0 6923.0
573251.0 1153557.0 6899.0
574609.0 1153805.0 6930.0
564698.0 1149378.0 7024.0
576345.0 1153705.0 6865.0
576043.0 1153532.0 7019.0
576012.0 1153319.0 6884.0
575858.0 1152981.0 6907.0
575763.0 1152146.0 6958.0
575931.0 1151974.0 6879.0
575203.0 1151644.0 6902.0
574818.0 1151507.0 6912.0
569320.0 1147384.0 6956.0
576883.0 1150113.0 6931.0
576536.0 1149994.0 6858.0
569701.0 1145726.0 6893.0
571570.0 1146173.0 6946.0
577512.0 1147966.0 6903.0
579910.0 1148649.0 7021.0
577609.0 1147827.0 6885.0
575047.0 1146691.0 6957.0
579809.0 1148511.0 6849.0
577667.0 1147585.0 6991.0
574725.0 1146317.0 6956.0
578678.0 1147786.0 6860.0
575141.0 1146290.0 6989.0
574790.0 1146198.0 6871.0
575281.0 1146131.0 7014.0
570342.0 1144029.0 6992.0
578152.0 1147075.0 6898.0
577806.0 1146923.0 6890.0
576299.0 1146242.0 6976.0
575936.0 1146110.0 7010.0
575577.0 1146002.0 6928.0
579350.0 1147176.0 6918.0
578612.0 1146859.0 7031.0
578212.0 1146741.0 6972.0
576256.0 1146000.0 6867.0
573970.0 1144994.0 6924.0
578575.0 1146597.0 6931.0
578245.0 1146413.0 6983.0
579097.0 1146440.0 6980.0
578738.0 1146308.0 6963.0
579180.0 1146216.0 6880.0
577940.0 1145389.0 7013.0
571532.0 1142573.0 6903.0
578095.0 1145051.0 6959.0
571494.0 1142289.0 6947.0
575172.0 1143564.0 7010.0
575076.0 1142946.0 7025.0
574294.0 1142680.0 6867.0
575232.0 1142742.0 6913.0
574899.0 1142575.0 6976.0
570820.0 1140850.0 7024.0
575391.0 1142441.0 6967.0
575022.0 1142330.0 6872.0
575609.0 1142252.0 6961.0
575221.0 1142130.0 6923.0
576010.0 1142182.0 6851.0
575623.0 1142006.0 6946.0
571530.0 1140275.0 6982.0
575828.0 1141870.0 6984.0
575474.0 1141755.0 6841.0
572534.0 1140514.0 6924.0
571815.0 1140211.0 6891.0
571438.0 1140071.0 6841.0
572727.0 1139664.0 6919.0
573511.0 1139639.0 6913.0
572172.0 1138734.0 6999.0
563764.0 1151752.0 6753.0
564802.0 1149473.0 6649.0
570282.0 1152492.0 6799.0
570936.0 1152411.0 6800.0
570801.0 1138600.0 6666.0
571258.0 1146001.0 6766.0
571577.0 1150795.0 6805.0
571132.0 1140392.0 6747.0
571326.0 1142602.0 6809.0
571382.0 1143300.0 6697.0
571873.0 1150898.0 6714.0
571304.0 1138425.0 6647.0
571370.0 1139190.0 6640.0
571378.0 1140002.0 6738.0
571607.0 1139846.0 6721.0
572964.0 1149708.0 6799.0
573201.0 1152761.0 6672.0
572561.0 1140335.0 6774.0
573412.0 1151682.0 6690.0
573561.0 1153032.0 6640.0
573528.0 1151893.0 6812.0
573642.0 1152662.0 6664.0
573834.0 1153225.0 6731.0
573922.0 1152970.0 6761.0
574039.0 1153619.0 6655.0
574137.0 1153453.0 6787.0
574160.0 1151504.0 6795.0
574346.0 1153861.0 6816.0
573848.0 1144431.0 6802.0
574283.0 1150084.0 6823.0
574391.0 1151528.0 6819.0
574047.0 1144494.0 6804.0
574538.0 1150096.0 6667.0
574799.0 1153942.0 6706.0
574747.0 1150089.0 6740.0
575004.0 1149498.0 6669.0
575063.0 1150924.0 6740.0
574803.0 1141658.0 6730.0
575522.0 1150048.0 6674.0
575388.0 1145626.0 6640.0
575626.0 1145860.0 6792.0
575417.0 1141556.0 6701.0
576098.0 1149620.0 6731.0
575497.0 1140051.0 6646.0
576020.0 1145845.0 6813.0
577104.0 1152378.0 6640.0
576830.0 1146354.0 6677.0
576460.0 1140750.0 6731.0
577748.0 1151090.0 6653.0
577460.0 1146548.0 6717.0
577583.0 1147971.0 6794.0
577535.0 1146491.0 6771.0
579579.0 1147759.0 6834.0
576661.0 1141508.0 6753.0
574067.0 1139500.0 6788.0
572361.0 1138373.0 6826.0
576452.0 1141620.0 6686.0
575347.0 1141658.0 6766.0
571443.0 1138732.0 6658.0
572788.0 1139849.0 6769.0
575115.0 1141669.0 6710.0
571197.0 1138780.0 6648.0
574755.0 1141636.0 6649.0
578292.0 1144678.0 6809.0
579660.0 1145770.0 6734.0
571360.0 1139250.0 6729.0
577804.0 1144529.0 6742.0
579791.0 1146159.0 6700.0
571603.0 1139783.0 6754.0
577668.0 1144846.0 6668.0
577979.0 1145531.0 6825.0
579909.0 1147009.0 6650.0
575679.0 1143790.0 6742.0
577949.0 1145607.0 6650.0
578431.0 1146204.0 6815.0
579438.0 1147269.0 6776.0
579179.0 1147603.0 6675.0
577486.0 1146581.0 6718.0
578840.0 1147641.0 6754.0
576459.0 1146036.0 6774.0
576956.0 1146371.0 6658.0
577423.0 1146690.0 6642.0
576083.0 1145912.0 6815.0
576579.0 1146314.0 6818.0
574027.0 1144516.0 6788.0
575405.0 1145598.0 6642.0
576270.0 1146322.0 6802.0
574917.0 1145436.0 6639.0
575385.0 1145759.0 6741.0
576339.0 1146511.0 6640.0
573423.0 1144451.0 6668.0
574412.0 1145186.0 6676.0
571087.0 1142840.0 6783.0
577463.0 1147823.0 6710.0
577703.0 1148129.0 6697.0
576575.0 1149542.0 6780.0
571205.0 1145843.0 6836.0
571212.0 1146146.0 6671.0
575824.0 1150636.0 6651.0
574740.0 1150115.0 6737.0
574173.0 1149907.0 6791.0
572846.0 1149073.0 6658.0
573208.0 1149553.0 6773.0
576379.0 1152008.0 6643.0
576756.0 1152404.0 6694.0
569910.0 1147298.0 6641.0
572939.0 1149594.0 6680.0
576617.0 1152761.0 6706.0
574103.0 1151217.0 6675.0
574260.0 1151574.0 6699.0
576256.0 1153520.0 6831.0
571938.0 1150842.0 6764.0
573271.0 1151801.0 6684.0
573491.0 1152212.0 6679.0
573692.0 1152581.0 6803.0
573730.0 1152744.0 6655.0
573864.0 1153050.0 6728.0
574296.0 1153443.0 6818.0
573744.0 1153101.0 6644.0
572214.0 1152228.0 6684.0
574396.0 1153885.0 6760.0
574297.0 1153999.0 6761.0
570480.0 1152929.0 6819.0
564690.0 1149408.0 6709.0
566520.0 1152114.0 6763.0
579714.0 1146998.0 6660.0
579985.0 1145629.0 6686.0
579842.0 1145573.0 6732.0
579580.0 1145835.0 6694.0
579061.0 1147319.0 6804.0
579341.0 1145925.0 6770.0
578413.0 1147555.0 6688.0
578323.0 1146409.0 6802.0
577734.0 1147893.0 6786.0
576523.0 1152505.0 6646.0
577484.0 1147924.0 6837.0
576317.0 1152734.0 6749.0
576400.0 1152299.0 6741.0
576804.0 1149919.0 6692.0
577531.0 1146632.0 6812.0
576150.0 1152770.0 6686.0
576744.0 1149290.0 6672.0
577664.0 1145014.0 6810.0
577685.0 1144592.0 6670.0
576066.0 1151675.0 6647.0
576551.0 1149362.0 6693.0
576254.0 1149490.0 6641.0
576721.0 1147088.0 6735.0
576829.0 1146151.0 6698.0
574893.0 1153794.0 6769.0
575290.0 1151501.0 6688.0
575605.0 1150127.0 6804.0
574548.0 1153890.0 6670.0
575027.0 1151495.0 6811.0
576074.0 1145943.0 6830.0
574748.0 1151394.0 6791.0
575798.0 1145794.0 6740.0
574196.0 1153297.0 6831.0
575576.0 1145887.0 6830.0
575315.0 1145757.0 6722.0
575477.0 1144827.0 6765.0
576055.0 1142017.0 6786.0
573668.0 1152758.0 6676.0
575146.0 1144835.0 6657.0
573310.0 1153550.0 6818.0
573401.0 1153064.0 6683.0
573549.0 1152605.0 6837.0
573566.0 1152123.0 6795.0
574496.0 1146506.0 6669.0
575144.0 1143259.0 6767.0
572983.0 1153872.0 6763.0
573598.0 1150036.0 6648.0
575523.0 1140315.0 6749.0
573179.0 1149688.0 6659.0
574771.0 1141426.0 6763.0
572529.0 1152130.0 6733.0
572584.0 1151718.0 6758.0
572808.0 1150738.0 6817.0
573700.0 1144452.0 6720.0
573916.0 1139415.0 6807.0
572984.0 1139525.0 6705.0
572524.0 1140349.0 6817.0
571401.0 1142853.0 6820.0
571172.0 1143049.0 6701.0
569755.0 1147265.0 6762.0
570271.0 1144380.0 6710.0
571218.0 1139266.0 6802.0
569343.0 1146528.0 6795.0
566650.0 1152315.0 6648.0
563600.0 1151818.0 6691.0
563586.0 1151878.0 6737.0
563337.0 1151295.0 6690.0
566551.0 1152469.0 6709.0
563390.0 1151069.0 6661.0
573632.0 1154792.0 6818.0
570554.0 1153480.0 6758.0
573963.0 1154187.0 6721.0
574338.0 1154019.0 6773.0
574134.0 1153254.0 6831.0
574106.0 1153129.0 6753.0
573780.0 1152656.0 6794.0
576394.0 1153522.0 6753.0
573648.0 1152347.0 6790.0
576517.0 1152847.0 6639.0
576144.0 1152628.0 6773.0
576425.0 1152532.0 6695.0
574218.0 1151534.0 6771.0
576581.0 1152366.0 6658.0
576280.0 1152185.0 6690.0
574398.0 1151385.0 6648.0
573697.0 1151077.0 6655.0
573001.0 1150709.0 6825.0
575975.0 1151764.0 6686.0
575579.0 1151597.0 6645.0
573839.0 1149908.0 6667.0
574215.0 1149823.0 6736.0
575583.0 1150123.0 6777.0
575705.0 1150012.0 6769.0
574181.0 1149326.0 6831.0
569577.0 1147305.0 6833.0
569430.0 1147027.0 6708.0
577104.0 1150089.0 6781.0
569379.0 1146756.0 6725.0
577827.0 1148197.0 6707.0
574662.0 1146588.0 6817.0
579466.0 1148334.0 6794.0
570237.0 1144472.0 6806.0
579379.0 1148204.0 6708.0
578585.0 1147580.0 6754.0
578245.0 1147431.0 6832.0
578833.0 1147446.0 6725.0
578488.0 1147250.0 6822.0
575875.0 1145847.0 6768.0
575487.0 1145726.0 6690.0
579659.0 1147118.0 6695.0
574903.0 1145165.0 6727.0
580496.0 1147101.0 6642.0
578402.0 1146231.0 6830.0
577671.0 1145890.0 6821.0
571036.0 1143165.0 6668.0
579559.0 1146400.0 6826.0
571081.0 1142933.0 6801.0
579366.0 1146106.0 6660.0
571210.0 1142709.0 6811.0
577148.0 1144989.0 6650.0
579576.0 1145719.0 6757.0
577272.0 1144807.0 6679.0
579925.0 1145630.0 6682.0
577733.0 1144513.0 6650.0
576187.0 1142086.0 6751.0
574766.0 1141498.0 6670.0
576153.0 1141827.0 6659.0
575771.0 1141660.0 6770.0
574991.0 1141361.0 6736.0
574636.0 1141153.0 6748.0
572709.0 1140341.0 6801.0
571515.0 1139896.0 6694.0
572675.0 1140061.0 6688.0
571189.0 1139462.0 6647.0
573029.0 1139846.0 6687.0
570900.0 1138978.0 6665.0
572701.0 1139401.0 6774.0
576538.0 1140639.0 6805.0
573932.0 1139523.0 6810.0
571725.0 1138653.0 6724.0
572206.0 1138308.0 6746.0
564223.0 1151550.0 6457.0
565617.0 1149695.0 6458.0
566413.0 1152130.0 6596.0
570105.0 1144333.0 6535.0
571140.0 1146031.0 6571.0
571737.0 1152304.0 6512.0
571213.0 1139730.0 6478.0
572050.0 1152262.0 6491.0
572283.0 1152383.0 6484.0
572438.0 1151114.0 6521.0
571781.0 1139628.0 6564.0
571908.0 1137677.0 6505.0
572080.0 1137752.0 6552.0
572224.0 1139373.0 6464.0
573167.0 1149582.0 6609.0
573340.0 1151936.0 6565.0
573407.0 1152725.0 6536.0
573496.0 1152363.0 6615.0
573699.0 1148097.0 6544.0
574060.0 1151163.0 6524.0
574644.0 1150855.0 6541.0
574921.0 1150841.0 6528.0
574622.0 1141629.0 6576.0
575022.0 1145684.0 6542.0
575402.0 1150527.0 6457.0
575636.0 1150806.0 6480.0
575056.0 1141275.0 6469.0
575808.0 1150657.0 6547.0
575282.0 1141521.0 6621.0
576530.0 1150699.0 6461.0
576677.0 1152280.0 6540.0
577087.0 1150899.0 6523.0
576338.0 1140493.0 6451.0
576386.0 1141335.0 6580.0
576589.0 1141644.0 6589.0
577458.0 1151093.0 6455.0
577222.0 1147463.0 6500.0
577124.0 1145024.0 6490.0
577606.0 1150833.0 6511.0
577478.0 1144800.0 6624.0
577882.0 1148137.0 6574.0
578107.0 1144869.0 6530.0
579233.0 1147625.0 6584.0
579464.0 1147976.0 6610.0
579728.0 1146232.0 6621.0
579968.0 1147094.0 6622.0
576525.0 1140469.0 6512.0
576395.0 1140538.0 6450.0
575689.0 1140149.0 6548.0
575755.0 1140334.0 6474.0
572053.0 1137538.0 6490.0
575677.0 1140413.0 6497.0
575992.0 1140960.0 6452.0
576402.0 1141390.0 6627.0
571294.0 1137623.0 6494.0
575730.0 1141226.0 6566.0
571815.0 1138221.0 6444.0
575479.0 1141164.0 6445.0
570775.0 1138391.0 6508.0
579526.0 1146085.0 6636.0
580456.0 1146858.0 6438.0
579522.0 1146245.0 6568.0
580380.0 1147038.0 6490.0
578449.0 1145638.0 6454.0
577627.0 1145686.0 6613.0
579741.0 1147968.0 6460.0
579370.0 1147957.0 6516.0
579855.0 1148349.0 6555.0
578813.0 1147748.0 6511.0
574935.0 1145564.0 6480.0
573344.0 1144486.0 6620.0
576409.0 1147017.0 6522.0
571301.0 1143240.0 6567.0
576219.0 1147042.0 6533.0
575067.0 1147042.0 6481.0
570380.0 1144437.0 6486.0
572122.0 1145739.0 6533.0
570999.0 1145416.0 6579.0
576372.0 1149578.0 6624.0
577736.0 1151034.0 6593.0
576555.0 1150407.0 6481.0
576984.0 1150801.0 6553.0
574872.0 1149420.0 6599.0
576371.0 1150525.0 6505.0
576860.0 1150861.0 6556.0
576277.0 1150653.0 6453.0
575413.0 1150312.0 6600.0
575286.0 1150428.0 6524.0
575778.0 1150795.0 6490.0
569661.0 1146913.0 6554.0
577292.0 1152681.0 6555.0
569434.0 1146997.0 6624.0
570321.0 1147633.0 6588.0
573684.0 1150797.0 6566.0
572401.0 1151104.0 6538.0
572071.0 1151097.0 6584.0
575424.0 1153639.0 6563.0
571940.0 1151164.0 6601.0
573279.0 1152158.0 6495.0
573330.0 1152365.0 6508.0
575087.0 1153720.0 6588.0
573401.0 1152627.0 6529.0
571901.0 1151844.0 6457.0
573580.0 1153157.0 6627.0
571930.0 1152177.0 6520.0
571550.0 1152170.0 6517.0
573300.0 1153440.0 6535.0
571237.0 1152275.0 6589.0
567029.0 1151892.0 6583.0
566718.0 1152443.0 6609.0
563491.0 1150805.0 6530.0
580248.0 1145979.0 6443.0
579712.0 1145981.0 6601.0
579068.0 1148071.0 6482.0
579471.0 1146256.0 6564.0
578158.0 1148402.0 6514.0
576745.0 1152577.0 6545.0
577020.0 1150842.0 6439.0
577757.0 1145661.0 6527.0
577952.0 1144752.0 6558.0
576677.0 1150362.0 6523.0
577663.0 1145710.0 6634.0
577808.0 1144815.0 6617.0
576233.0 1151910.0 6539.0
575409.0 1153656.0 6535.0
575941.0 1150865.0 6595.0
576671.0 1146648.0 6484.0
575691.0 1150536.0 6501.0
576451.0 1146653.0 6614.0
575396.0 1150559.0 6473.0
576075.0 1146929.0 6487.0
575048.0 1151039.0 6608.0
575220.0 1150073.0 6576.0
574803.0 1149569.0 6612.0
576269.0 1141795.0 6548.0
576304.0 1141367.0 6449.0
573761.0 1153770.0 6504.0
574174.0 1151324.0 6536.0
574446.0 1149981.0 6504.0
574936.0 1147123.0 6467.0
576224.0 1140626.0 6551.0
574947.0 1145653.0 6559.0
575781.0 1141320.0 6445.0
573681.0 1150693.0 6468.0
574648.0 1145593.0 6478.0
575486.0 1141485.0 6581.0
573152.0 1152412.0 6454.0
573337.0 1149698.0 6521.0
574984.0 1141127.0 6545.0
572736.0 1151539.0 6458.0
572957.0 1150609.0 6464.0
572955.0 1149329.0 6577.0
572289.0 1151844.0 6519.0
572345.0 1151409.0 6494.0
571994.0 1152021.0 6480.0
572253.0 1151136.0 6635.0
571761.0 1151883.0 6482.0
571475.0 1152136.0 6495.0
572596.0 1144875.0 6466.0
571413.0 1146023.0 6633.0
571780.0 1143614.0 6454.0
572322.0 1139226.0 6468.0
570399.0 1148002.0 6488.0
571230.0 1143317.0 6478.0
570236.0 1147782.0 6454.0
571701.0 1139706.0 6490.0
570137.0 1147136.0 6517.0
571527.0 1139728.0 6596.0
569949.0 1147080.0 6519.0
570414.0 1144302.0 6500.0
571316.0 1139679.0 6600.0
571582.0 1138370.0 6464.0
569878.0 1145800.0 6474.0
571086.0 1139676.0 6635.0
569507.0 1146850.0 6605.0
570992.0 1138567.0 6503.0
570736.0 1138602.0 6626.0
563679.0 1150768.0 6450.0
563463.0 1150889.0 6614.0
563668.0 1151725.0 6589.0
563982.0 1151723.0 6439.0
563540.0 1150925.0 6562.0
573949.0 1153977.0 6626.0
573776.0 1153607.0 6581.0
573439.0 1153458.0 6520.0
573350.0 1153046.0 6570.0
571744.0 1152342.0 6527.0
571329.0 1152230.0 6487.0
575221.0 1153670.0 6500.0
571847.0 1152166.0 6461.0
573354.0 1152577.0 6553.0
571919.0 1151968.0 6470.0
573224.0 1152275.0 6458.0
572433.0 1151948.0 6464.0
572490.0 1151439.0 6481.0
572178.0 1151274.0 6546.0
573406.0 1151562.0 6503.0
572275.0 1151071.0 6493.0
576780.0 1152738.0 6548.0
577305.0 1152718.0 6455.0
574036.0 1151267.0 6567.0
576350.0 1151999.0 6499.0
575197.0 1151463.0 6531.0
574395.0 1151159.0 6495.0
574796.0 1150996.0 6558.0
575152.0 1150861.0 6484.0
574852.0 1150723.0 6525.0
576167.0 1150956.0 6508.0
575784.0 1150761.0 6591.0
573104.0 1149634.0 6544.0
577302.0 1150968.0 6438.0
574758.0 1149902.0 6475.0
577582.0 1150864.0 6574.0
577166.0 1150762.0 6477.0
576816.0 1150529.0 6501.0
575271.0 1149964.0 6468.0
574915.0 1149720.0 6535.0
573385.0 1149094.0 6552.0
574940.0 1149500.0 6614.0
576790.0 1149963.0 6600.0
575193.0 1149425.0 6472.0
569726.0 1146967.0 6557.0
576735.0 1149382.0 6589.0
571144.0 1146118.0 6605.0
578198.0 1148411.0 6551.0
575507.0 1147339.0 6449.0
575133.0 1147193.0 6453.0
574742.0 1147008.0 6517.0
575718.0 1147216.0 6469.0
576066.0 1147087.0 6486.0
579006.0 1148077.0 6539.0
578921.0 1147747.0 6632.0
576306.0 1146750.0 6569.0
575084.0 1145611.0 6591.0
574677.0 1145487.0 6462.0
579990.0 1147239.0 6606.0
576663.0 1145925.0 6594.0
576336.0 1145787.0 6607.0
580151.0 1147057.0 6505.0
578354.0 1146025.0 6440.0
571393.0 1143151.0 6582.0
579714.0 1146268.0 6623.0
579692.0 1146050.0 6579.0
579324.0 1145882.0 6544.0
579923.0 1145931.0 6558.0
577654.0 1144991.0 6589.0
570906.0 1140735.0 6549.0
571047.0 1140018.0 6506.0
575381.0 1141523.0 6556.0
571142.0 1139733.0 6620.0
576341.0 1141651.0 6445.0
575983.0 1141483.0 6543.0
575623.0 1141361.0 6482.0
571927.0 1139794.0 6544.0
572287.0 1139620.0 6471.0
571936.0 1139143.0 6503.0
570828.0 1138622.0 6577.0
575453.0 1140256.0 6585.0
570636.0 1138252.0 6494.0
570258.0 1146752.0 6357.0
570758.0 1145345.0 6271.0
570956.0 1146051.0 6347.0
570861.0 1137822.0 6305.0
571277.0 1143574.0 6362.0
571096.0 1138285.0 6404.0
571186.0 1138992.0 6291.0
572073.0 1151578.0 6364.0
572355.0 1151659.0 6335.0
572153.0 1145630.0 6405.0
572559.0 1151922.0 6368.0
571729.0 1138200.0 6395.0
571794.0 1138188.0 6393.0
572867.0 1152348.0 6277.0
571886.0 1137913.0 6325.0
571989.0 1139582.0 6430.0
572945.0 1151864.0 6243.0
572954.0 1152649.0 6330.0
573067.0 1151842.0 6290.0
573082.0 1152555.0 6432.0
573144.0 1153242.0 6325.0
573213.0 1151998.0 6430.0
573350.0 1148953.0 6288.0
573795.0 1153425.0 6397.0
573632.0 1148438.0 6246.0
573829.0 1150888.0 6324.0
573456.0 1144537.0 6359.0
573841.0 1149489.0 6387.0
573925.0 1150887.0 6431.0
574496.0 1150816.0 6385.0
574320.0 1145272.0 6247.0
575222.0 1141072.0 6304.0
576198.0 1150906.0 6347.0
575511.0 1140795.0 6252.0
576364.0 1151000.0 6300.0
575734.0 1140850.0 6315.0
576439.0 1145481.0 6300.0
576614.0 1147173.0 6381.0
576801.0 1150588.0 6416.0
577038.0 1152152.0 6265.0
576222.0 1140674.0 6379.0
577149.0 1147951.0 6265.0
577364.0 1151198.0 6274.0
578150.0 1148278.0 6240.0
578935.0 1148063.0 6355.0
579113.0 1147894.0 6374.0
576300.0 1140662.0 6384.0
576226.0 1140692.0 6400.0
576145.0 1140740.0 6379.0
572010.0 1137865.0 6388.0
575630.0 1140799.0 6328.0
571816.0 1137911.0 6328.0
576453.0 1141809.0 6319.0
572640.0 1139034.0 6243.0
575291.0 1141171.0 6391.0
572436.0 1139314.0 6352.0
572100.0 1139420.0 6431.0
580185.0 1146049.0 6437.0
571943.0 1139518.0 6390.0
578393.0 1144765.0 6250.0
571238.0 1139314.0 6357.0
579121.0 1145591.0 6284.0
578565.0 1145556.0 6382.0
578586.0 1145714.0 6242.0
578476.0 1145796.0 6267.0
579660.0 1147555.0 6394.0
579754.0 1148421.0 6248.0
576844.0 1146555.0 6289.0
574308.0 1145202.0 6334.0
574794.0 1145533.0 6422.0
576596.0 1146983.0 6389.0
578036.0 1148126.0 6348.0
574684.0 1145546.0 6352.0
578217.0 1148392.0 6319.0
571787.0 1143590.0 6413.0
576757.0 1147324.0 6256.0
571398.0 1143461.0 6404.0
576869.0 1147604.0 6323.0
571109.0 1143331.0 6345.0
571507.0 1143659.0 6423.0
571122.0 1143609.0 6311.0
572399.0 1144864.0 6287.0
574666.0 1146642.0 6372.0
570848.0 1145388.0 6393.0
571031.0 1145716.0 6244.0
573891.0 1148155.0 6324.0
577470.0 1151108.0 6435.0
575916.0 1150107.0 6422.0
577379.0 1151197.0 6332.0
575865.0 1150278.0 6295.0
577220.0 1151295.0 6260.0
570286.0 1146762.0 6333.0
575597.0 1150818.0 6366.0
576052.0 1151154.0 6415.0
570505.0 1147096.0 6348.0
574863.0 1150396.0 6281.0
575281.0 1150704.0 6426.0
575724.0 1151015.0 6341.0
570500.0 1147159.0 6287.0
576718.0 1151963.0 6384.0
573895.0 1151130.0 6299.0
573324.0 1151423.0 6378.0
572615.0 1151385.0 6282.0
573105.0 1151757.0 6332.0
572410.0 1151443.0 6360.0
572126.0 1151385.0 6409.0
572963.0 1151957.0 6254.0
572060.0 1151531.0 6415.0
572468.0 1151910.0 6433.0
572990.0 1152206.0 6322.0
572043.0 1151749.0 6434.0
572494.0 1152065.0 6405.0
572957.0 1152354.0 6323.0
574203.0 1153382.0 6398.0
572775.0 1152415.0 6274.0
574026.0 1153482.0 6435.0
572484.0 1152452.0 6243.0
572922.0 1152819.0 6319.0
573887.0 1153557.0 6314.0
572901.0 1153055.0 6281.0
572395.0 1153747.0 6272.0
565275.0 1149394.0 6337.0
564395.0 1150704.0 6382.0
563942.0 1151616.0 6272.0
580264.0 1147100.0 6406.0
580133.0 1146392.0 6370.0
579690.0 1147458.0 6362.0
579400.0 1147889.0 6258.0
579811.0 1146111.0 6421.0
579202.0 1148106.0 6368.0
577617.0 1151153.0 6429.0
578145.0 1144866.0 6277.0
576503.0 1152021.0 6325.0
576678.0 1151117.0 6337.0
577806.0 1145194.0 6243.0
577675.0 1145261.0 6418.0
576337.0 1151009.0 6353.0
576410.0 1150587.0 6309.0
576897.0 1147977.0 6269.0
576185.0 1150716.0 6416.0
575734.0 1150108.0 6396.0
576308.0 1145537.0 6350.0
574496.0 1153402.0 6308.0
574977.0 1149226.0 6395.0
576418.0 1141848.0 6318.0
573866.0 1154155.0 6331.0
573886.0 1153740.0 6288.0
574482.0 1150933.0 6415.0
574564.0 1150001.0 6257.0
575144.0 1147251.0 6414.0
573706.0 1153327.0 6249.0
574251.0 1150933.0 6415.0
573470.0 1153589.0 6349.0
573456.0 1153197.0 6284.0
575840.0 1140944.0 6404.0
575465.0 1140980.0 6270.0
573109.0 1151927.0 6311.0
573216.0 1151470.0 6256.0
574363.0 1145302.0 6305.0
575198.0 1141138.0 6400.0
575264.0 1140728.0 6374.0
572798.0 1152352.0 6287.0
572868.0 1151914.0 6278.0
572408.0 1153318.0 6295.0
572662.0 1151985.0 6409.0
