605678.0 1117418.0 2435.0
605712.0 1117401.0 2380.0
605738.0 1117384.0 2396.0
605970.0 1116137.0 2119.0
605733.0 1116728.0 2220.0
605903.0 1116583.0 2144.0
605540.0 1116901.0 2200.0
605654.0 1116507.0 2138.0
605778.0 1116151.0 2146.0
604829.0 1117944.0 2100.0
605240.0 1116866.0 2121.0
605386.0 1116498.0 2162.0
605472.0 1116120.0 2054.0
605105.0 1117615.0 2192.0
605278.0 1117074.0 2169.0
605515.0 1116874.0 2171.0
605845.0 1116720.0 2176.0
605459.0 1116651.0 2078.0
605835.0 1116470.0 2122.0
605490.0 1116396.0 2065.0
605939.0 1116243.0 2057.0
605868.0 1115677.0 1859.0
605895.0 1115665.0 1865.0
605799.0 1115794.0 1895.0
605655.0 1115875.0 1877.0
605495.0 1116007.0 1881.0
605488.0 1116150.0 1948.0
605580.0 1116225.0 2012.0
605262.0 1116224.0 1862.0
605047.0 1118082.0 1973.0
605833.0 1115746.0 1924.0
605626.0 1115363.0 1841.0
604708.0 1117403.0 1992.0
604755.0 1116987.0 1883.0
604946.0 1116650.0 1934.0
605054.0 1116280.0 1893.0
604403.0 1117143.0 1846.0
605228.0 1118072.0 1961.0
603831.0 1117663.0 1848.0
604741.0 1117579.0 1996.0
604357.0 1117530.0 1877.0
604903.0 1117324.0 1976.0
604925.0 1117036.0 1981.0
605147.0 1116824.0 2030.0
605072.0 1116607.0 1919.0
605555.0 1116169.0 1943.0
605952.0 1115941.0 1893.0
605842.0 1115367.0 1641.0
605823.0 1115568.0 1754.0
605886.0 1115518.0 1766.0
605485.0 1115682.0 1678.0
605411.0 1115861.0 1757.0
605164.0 1115874.0 1647.0
605494.0 1115722.0 1808.0
605130.0 1115879.0 1753.0
605240.0 1115479.0 1703.0
604499.0 1116749.0 1739.0
604623.0 1116368.0 1706.0
603934.0 1117345.0 1743.0
604046.0 1116996.0 1676.0
603465.0 1117648.0 1752.0
604008.0 1117469.0 1772.0
603652.0 1117415.0 1669.0
604548.0 1117261.0 1836.0
604222.0 1117199.0 1767.0
603864.0 1117141.0 1653.0
604513.0 1117006.0 1777.0
604749.0 1116804.0 1794.0
604650.0 1116580.0 1642.0
605076.0 1116381.0 1821.0
605157.0 1116140.0 1713.0
605567.0 1115890.0 1802.0
605986.0 1115666.0 1776.0
605694.0 1115399.0 1599.0
605403.0 1115344.0 1463.0
605358.0 1115537.0 1537.0
605285.0 1117739.0 1515.0
603639.0 1117205.0 1630.0
603347.0 1117365.0 1542.0
603514.0 1117114.0 1466.0
604136.0 1116950.0 1624.0
604387.0 1116760.0 1622.0
604314.0 1116525.0 1543.0
604724.0 1116358.0 1617.0
604393.0 1116315.0 1476.0
604799.0 1116118.0 1532.0
605165.0 1115860.0 1573.0
605593.0 1115622.0 1587.0
605231.0 1115577.0 1449.0
605730.0 1115346.0 1524.0
605380.0 1115292.0 1441.0
605984.0 1115035.0 1388.0
605651.0 1115154.0 1394.0
605639.0 1115158.0 1391.0
605689.0 1115152.0 1404.0
605197.0 1115480.0 1433.0
605738.0 1114511.0 1074.0
605591.0 1114539.0 1171.0
