517282.0 1107570.0 3469.0
516966.0 1111543.0 3593.0
516799.0 1113724.0 3596.0
517605.0 1106351.0 3625.0
517581.0 1107542.0 3469.0
517180.0 1112750.0 3609.0
517416.0 1113856.0 3599.0
517694.0 1113318.0 3598.0
518254.0 1110052.0 3453.0
517875.0 1114049.0 3511.0
518465.0 1109817.0 3445.0
518416.0 1110905.0 3559.0
518262.0 1112441.0 3527.0
518220.0 1113420.0 3439.0
518953.0 1105866.0 3507.0
519102.0 1106066.0 3519.0
518684.0 1113119.0 3557.0
518580.0 1114194.0 3601.0
518836.0 1113375.0 3553.0
519216.0 1111116.0 3446.0
518982.0 1114498.0 3498.0
519059.0 1102676.0 3480.0
512001.0 1101666.0 3603.0
511929.0 1101840.0 3540.0
514007.0 1103069.0 3585.0
511877.0 1102052.0 3544.0
511949.0 1102310.0 3554.0
518854.0 1106698.0 3459.0
514194.0 1104338.0 3624.0
513365.0 1104125.0 3440.0
517182.0 1106303.0 3552.0
514768.0 1105229.0 3554.0
511614.0 1103699.0 3450.0
511539.0 1104029.0 3566.0
514542.0 1105674.0 3451.0
517490.0 1107393.0 3519.0
513732.0 1105531.0 3444.0
514111.0 1105764.0 3614.0
515390.0 1106746.0 3559.0
515761.0 1106959.0 3612.0
510921.0 1104504.0 3594.0
515520.0 1107050.0 3537.0
517159.0 1107927.0 3463.0
508352.0 1103318.0 3493.0
515413.0 1107281.0 3532.0
514900.0 1107263.0 3449.0
515256.0 1107544.0 3629.0
515647.0 1107705.0 3573.0
516801.0 1108353.0 3537.0
515138.0 1107684.0 3578.0
515562.0 1107870.0 3458.0
516811.0 1108592.0 3495.0
517693.0 1109063.0 3487.0
518100.0 1109336.0 3583.0
511107.0 1105628.0 3448.0
508498.0 1104706.0 3606.0
514689.0 1108195.0 3580.0
515135.0 1108409.0 3477.0
513531.0 1107758.0 3452.0
519047.0 1110965.0 3587.0
519841.0 1111435.0 3561.0
513766.0 1108192.0 3448.0
509160.0 1105991.0 3560.0
513673.0 1108478.0 3559.0
517382.0 1110593.0 3564.0
513613.0 1108701.0 3621.0
515200.0 1109605.0 3570.0
516792.0 1110426.0 3462.0
517171.0 1110658.0 3595.0
519578.0 1112031.0 3565.0
510735.0 1107318.0 3539.0
511143.0 1107490.0 3486.0
511503.0 1107729.0 3471.0
511881.0 1107972.0 3524.0
513479.0 1108807.0 3483.0
513856.0 1109031.0 3476.0
515031.0 1109654.0 3447.0
508170.0 1106133.0 3637.0
508585.0 1106304.0 3489.0
510633.0 1107503.0 3575.0
516498.0 1110650.0 3493.0
515817.0 1110542.0 3567.0
508938.0 1107147.0 3580.0
515988.0 1110939.0 3578.0
516695.0 1111425.0 3581.0
517946.0 1112066.0 3579.0
512239.0 1109171.0 3482.0
513032.0 1109672.0 3586.0
512547.0 1109747.0 3475.0
519190.0 1113565.0 3621.0
512545.0 1110159.0 3625.0
517887.0 1113148.0 3627.0
518296.0 1113297.0 3508.0
508632.0 1108357.0 3547.0
512382.0 1110380.0 3470.0
512728.0 1110613.0 3571.0
514354.0 1111554.0 3623.0
519290.0 1114289.0 3624.0
510629.0 1110181.0 3636.0
511021.0 1110347.0 3534.0
515668.0 1112908.0 3537.0
516078.0 1113099.0 3498.0
516862.0 1113573.0 3538.0
510571.0 1110384.0 3561.0
513028.0 1111763.0 3565.0
515138.0 1112890.0 3536.0
517702.0 1114275.0 3514.0
508812.0 1109712.0 3625.0
510378.0 1110516.0 3548.0
511579.0 1111157.0 3484.0
513931.0 1112465.0 3544.0
514747.0 1112906.0 3503.0
508729.0 1109885.0 3616.0
510297.0 1110667.0 3468.0
513002.0 1112098.0 3462.0
513742.0 1112552.0 3465.0
514478.0 1112987.0 3576.0
508821.0 1110179.0 3631.0
509623.0 1110588.0 3535.0
511622.0 1111674.0 3596.0
513305.0 1112552.0 3573.0
515788.0 1113925.0 3552.0
513552.0 1112926.0 3569.0
514301.0 1113344.0 3601.0
515889.0 1114176.0 3489.0
511539.0 1112091.0 3546.0
513891.0 1113346.0 3448.0
511458.0 1112359.0 3599.0
510966.0 1112400.0 3471.0
511940.0 1113256.0 3506.0
511380.0 1113628.0 3573.0
511001.0 1113684.0 3555.0
510870.0 1113884.0 3583.0
510754.0 1114018.0 3621.0
510787.0 1114164.0 3584.0
519612.0 1106196.0 3458.0
518121.0 1113056.0 3578.0
518290.0 1111069.0 3611.0
518086.0 1110992.0 3517.0
517654.0 1115320.0 3591.0
517853.0 1113079.0 3588.0
517841.0 1109936.0 3469.0
517323.0 1109200.0 3468.0
517020.0 1111083.0 3581.0
517105.0 1109988.0 3521.0
516580.0 1113440.0 3521.0
516649.0 1112873.0 3512.0
516168.0 1115250.0 3446.0
515978.0 1114533.0 3474.0
516191.0 1111186.0 3483.0
516245.0 1110648.0 3545.0
516337.0 1109009.0 3522.0
516567.0 1106795.0 3555.0
516012.0 1110073.0 3485.0
516107.0 1108895.0 3477.0
515519.0 1114353.0 3458.0
515615.0 1113900.0 3622.0
515696.0 1112319.0 3620.0
515328.0 1114322.0 3487.0
515387.0 1113822.0 3594.0
515737.0 1108154.0 3454.0
515194.0 1112889.0 3541.0
515376.0 1109968.0 3531.0
515620.0 1107134.0 3580.0
514982.0 1112932.0 3547.0
515367.0 1107684.0 3498.0
515421.0 1107141.0 3524.0
514756.0 1113102.0 3497.0
514297.0 1113096.0 3438.0
514731.0 1107342.0 3562.0
514545.0 1105846.0 3472.0
514668.0 1104775.0 3565.0
514689.0 1104262.0 3492.0
513877.0 1112611.0 3557.0
514402.0 1105200.0 3535.0
514476.0 1104631.0 3623.0
513647.0 1112421.0 3595.0
513691.0 1111898.0 3594.0
513877.0 1108227.0 3453.0
513930.0 1107727.0 3462.0
514139.0 1105106.0 3572.0
514185.0 1104592.0 3605.0
513533.0 1109731.0 3442.0
513682.0 1107999.0 3505.0
513757.0 1106303.0 3448.0
513413.0 1108724.0 3506.0
513447.0 1108138.0 3467.0
513622.0 1106336.0 3516.0
513634.0 1105804.0 3520.0
513716.0 1105242.0 3608.0
513675.0 1104679.0 3499.0
513443.0 1106017.0 3496.0
513569.0 1105030.0 3586.0
513640.0 1104539.0 3612.0
512795.0 1113520.0 3597.0
512882.0 1111863.0 3474.0
513001.0 1110733.0 3634.0
513383.0 1105098.0 3544.0
512721.0 1110672.0 3505.0
512970.0 1106071.0 3605.0
512624.0 1106851.0 3466.0
512760.0 1105316.0 3524.0
511976.0 1113511.0 3508.0
512402.0 1106781.0 3513.0
511850.0 1111944.0 3492.0
512231.0 1106757.0 3610.0
511721.0 1112098.0 3601.0
511680.0 1111520.0 3451.0
512334.0 1102036.0 3580.0
511519.0 1111051.0 3443.0
512134.0 1101953.0 3571.0
511259.0 1113661.0 3631.0
511430.0 1111300.0 3619.0
511973.0 1102045.0 3549.0
511056.0 1113706.0 3561.0
511067.0 1112586.0 3599.0
511129.0 1111004.0 3442.0
511204.0 1110493.0 3516.0
511360.0 1107830.0 3527.0
511569.0 1104167.0 3457.0
511709.0 1102618.0 3623.0
511774.0 1102106.0 3630.0
511824.0 1101635.0 3595.0
510786.0 1113955.0 3558.0
510908.0 1112262.0 3503.0
511131.0 1107654.0 3501.0
510788.0 1110613.0 3609.0
510809.0 1109471.0 3564.0
511038.0 1105391.0 3483.0
510544.0 1110482.0 3637.0
510731.0 1107324.0 3576.0
510242.0 1110815.0 3464.0
510070.0 1111170.0 3594.0
509882.0 1110645.0 3548.0
509503.0 1110506.0 3522.0
508295.0 1106754.0 3545.0
507990.0 1103853.0 3565.0
507657.0 1108110.0 3629.0
507463.0 1108368.0 3515.0
507355.0 1108034.0 3559.0
510707.0 1113862.0 3516.0
511081.0 1113796.0 3610.0
511896.0 1113414.0 3514.0
512071.0 1113254.0 3606.0
510990.0 1112425.0 3492.0
516444.0 1115323.0 3527.0
511134.0 1112244.0 3479.0
517253.0 1115519.0 3448.0
515216.0 1113999.0 3580.0
511709.0 1111998.0 3584.0
507777.0 1109683.0 3522.0
513713.0 1112879.0 3541.0
513305.0 1112618.0 3596.0
509530.0 1110529.0 3462.0
515517.0 1113800.0 3526.0
515105.0 1113595.0 3444.0
510264.0 1110709.0 3549.0
509845.0 1110568.0 3485.0
515733.0 1113671.0 3517.0
513614.0 1112414.0 3634.0
511418.0 1111182.0 3485.0
515001.0 1112921.0 3573.0
512974.0 1111793.0 3548.0
511320.0 1110852.0 3462.0
510939.0 1110533.0 3634.0
516583.0 1113581.0 3450.0
507407.0 1108204.0 3538.0
516585.0 1113282.0 3454.0
515688.0 1112765.0 3461.0
513985.0 1111753.0 3595.0
512988.0 1110871.0 3599.0
512592.0 1110643.0 3471.0
511322.0 1109894.0 3624.0
510938.0 1109664.0 3599.0
517616.0 1113237.0 3604.0
511546.0 1109862.0 3455.0
515803.0 1112050.0 3559.0
511253.0 1109199.0 3496.0
518316.0 1113032.0 3444.0
512784.0 1109837.0 3531.0
517296.0 1112137.0 3606.0
516855.0 1111971.0 3553.0
516066.0 1111494.0 3547.0
512235.0 1109184.0 3621.0
510459.0 1108275.0 3496.0
515381.0 1110828.0 3608.0
513978.0 1109938.0 3439.0
510646.0 1107734.0 3492.0
516243.0 1110613.0 3541.0
515834.0 1110364.0 3603.0
515024.0 1109941.0 3553.0
511768.0 1108024.0 3608.0
511358.0 1107808.0 3614.0
510940.0 1107554.0 3614.0
515967.0 1110223.0 3490.0
511111.0 1107466.0 3445.0
513939.0 1108793.0 3447.0
514067.0 1108654.0 3545.0
513668.0 1108411.0 3569.0
513971.0 1108409.0 3502.0
513579.0 1108185.0 3491.0
513813.0 1108141.0 3461.0
514722.0 1108333.0 3563.0
513952.0 1107962.0 3460.0
513597.0 1107734.0 3578.0
513897.0 1107605.0 3561.0
512687.0 1106989.0 3448.0
515002.0 1107968.0 3568.0
512791.0 1106766.0 3483.0
511112.0 1105765.0 3516.0
514142.0 1107255.0 3442.0
516680.0 1108294.0 3526.0
510678.0 1104890.0 3555.0
508233.0 1103499.0 3536.0
516862.0 1108185.0 3513.0
511319.0 1105052.0 3515.0
508349.0 1103323.0 3585.0
511360.0 1104877.0 3438.0
513702.0 1105944.0 3461.0
510951.0 1104343.0 3558.0
515131.0 1106146.0 3539.0
513522.0 1105267.0 3621.0
511466.0 1104141.0 3568.0
509840.0 1103156.0 3605.0
511663.0 1103937.0 3591.0
514534.0 1105333.0 3460.0
514121.0 1105104.0 3530.0
511606.0 1103623.0 3611.0
514347.0 1104909.0 3589.0
513948.0 1104679.0 3616.0
511888.0 1103557.0 3530.0
511103.0 1103059.0 3633.0
511283.0 1103014.0 3483.0
517262.0 1106292.0 3466.0
514731.0 1104761.0 3632.0
514350.0 1104570.0 3627.0
511762.0 1103156.0 3545.0
517489.0 1106141.0 3543.0
514672.0 1104551.0 3585.0
511856.0 1102995.0 3556.0
511478.0 1102767.0 3552.0
514667.0 1104302.0 3547.0
511840.0 1102404.0 3480.0
512015.0 1102126.0 3506.0
512126.0 1101848.0 3581.0
517164.0 1102840.0 3637.0
508318.0 1103448.0 3253.0
507840.0 1108908.0 3250.0
507663.0 1109402.0 3428.0
508262.0 1106483.0 3246.0
508044.0 1108705.0 3244.0
508466.0 1106400.0 3403.0
508741.0 1106438.0 3386.0
508534.0 1109154.0 3297.0
508990.0 1106124.0 3390.0
509492.0 1104215.0 3255.0
509813.0 1106098.0 3437.0
510044.0 1106203.0 3274.0
510044.0 1106640.0 3394.0
510619.0 1107984.0 3425.0
510336.0 1111023.0 3324.0
510257.0 1112029.0 3413.0
511136.0 1105167.0 3400.0
511059.0 1105734.0 3391.0
510961.0 1106872.0 3402.0
510920.0 1107427.0 3428.0
510586.0 1110740.0 3401.0
511474.0 1103260.0 3328.0
511393.0 1104435.0 3245.0
511229.0 1106143.0 3358.0
510886.0 1110753.0 3250.0
510664.0 1112431.0 3352.0
511877.0 1101758.0 3413.0
511734.0 1103371.0 3396.0
511526.0 1104956.0 3430.0
511260.0 1109177.0 3285.0
510796.0 1113744.0 3375.0
511369.0 1110952.0 3328.0
511631.0 1110891.0 3375.0
511531.0 1112008.0 3415.0
512013.0 1109702.0 3378.0
511916.0 1110766.0 3305.0
512333.0 1109087.0 3245.0
512250.0 1110182.0 3255.0
512169.0 1110726.0 3296.0
512914.0 1104041.0 3240.0
512828.0 1105065.0 3304.0
512773.0 1105568.0 3327.0
512696.0 1107112.0 3283.0
512371.0 1110200.0 3372.0
513135.0 1103949.0 3258.0
513062.0 1104516.0 3430.0
512859.0 1107329.0 3263.0
513311.0 1104436.0 3307.0
513032.0 1107327.0 3398.0
513566.0 1104138.0 3301.0
513448.0 1105163.0 3385.0
513836.0 1104111.0 3275.0
514103.0 1103407.0 3297.0
513965.0 1108437.0 3414.0
513923.0 1108943.0 3393.0
514200.0 1108469.0 3388.0
514179.0 1109010.0 3344.0
514922.0 1107315.0 3262.0
515220.0 1107029.0 3397.0
514742.0 1113133.0 3411.0
515095.0 1113233.0 3338.0
516098.0 1106743.0 3396.0
515605.0 1113464.0 3323.0
515829.0 1113161.0 3286.0
516305.0 1108453.0 3346.0
516247.0 1108943.0 3338.0
516214.0 1109965.0 3281.0
515955.0 1113091.0 3350.0
516466.0 1108561.0 3307.0
515943.0 1114667.0 3371.0
516686.0 1108124.0 3383.0
516680.0 1109268.0 3249.0
517022.0 1107800.0 3417.0
516826.0 1110403.0 3407.0
517356.0 1107003.0 3310.0
516731.0 1114891.0 3382.0
517443.0 1110467.0 3348.0
517421.0 1111028.0 3386.0
517851.0 1109236.0 3239.0
517715.0 1110801.0 3305.0
517548.0 1113376.0 3379.0
517445.0 1115422.0 3244.0
517900.0 1111711.0 3429.0
517843.0 1113942.0 3292.0
517720.0 1114497.0 3428.0
517710.0 1115031.0 3310.0
518474.0 1106561.0 3421.0
518276.0 1109524.0 3353.0
518227.0 1111198.0 3251.0
518102.0 1112350.0 3376.0
517925.0 1114605.0 3263.0
517874.0 1115151.0 3337.0
518707.0 1106662.0 3403.0
518219.0 1113953.0 3299.0
518094.0 1115519.0 3282.0
519010.0 1106450.0 3310.0
518508.0 1113264.0 3426.0
519522.0 1102687.0 3319.0
518931.0 1113957.0 3280.0
519589.0 1105955.0 3284.0
519683.0 1111434.0 3323.0
519509.0 1114027.0 3297.0
520065.0 1112648.0 3277.0
514669.0 1102873.0 3419.0
518727.0 1105673.0 3342.0
513927.0 1103159.0 3351.0
517167.0 1104968.0 3282.0
519163.0 1106184.0 3312.0
513945.0 1103359.0 3281.0
514196.0 1103723.0 3296.0
518790.0 1106431.0 3434.0
519216.0 1106671.0 3406.0
513288.0 1103444.0 3272.0
514088.0 1103866.0 3247.0
515289.0 1104557.0 3251.0
513093.0 1103572.0 3239.0
513457.0 1103799.0 3280.0
513861.0 1103984.0 3253.0
513822.0 1104237.0 3325.0
518473.0 1106899.0 3265.0
513216.0 1104210.0 3315.0
513214.0 1104528.0 3272.0
514767.0 1105443.0 3371.0
516707.0 1106850.0 3304.0
511368.0 1104142.0 3412.0
515794.0 1106563.0 3243.0
516592.0 1107054.0 3308.0
517335.0 1107487.0 3370.0
514248.0 1105966.0 3263.0
510147.0 1103910.0 3332.0
513875.0 1106039.0 3325.0
515141.0 1106757.0 3346.0
508762.0 1103512.0 3341.0
509165.0 1103670.0 3293.0
511178.0 1104778.0 3274.0
515055.0 1107036.0 3397.0
511059.0 1104992.0 3301.0
511397.0 1105194.0 3256.0
516500.0 1108120.0 3351.0
511052.0 1105287.0 3363.0
514778.0 1107365.0 3291.0
516427.0 1108330.0 3361.0
518489.0 1109570.0 3411.0
508415.0 1104037.0 3258.0
514285.0 1107400.0 3437.0
515885.0 1108220.0 3250.0
516282.0 1108468.0 3315.0
517085.0 1108943.0 3385.0
517507.0 1109169.0 3300.0
511638.0 1106053.0 3255.0
512818.0 1106791.0 3384.0
515993.0 1108583.0 3320.0
516384.0 1108728.0 3244.0
516764.0 1108975.0 3295.0
518377.0 1109862.0 3240.0
511018.0 1106002.0 3250.0
512697.0 1106949.0 3322.0
516819.0 1109271.0 3293.0
518144.0 1109966.0 3269.0
511116.0 1106420.0 3417.0
513913.0 1108007.0 3430.0
514729.0 1108357.0 3251.0
519464.0 1111148.0 3368.0
510680.0 1106477.0 3341.0
513373.0 1107971.0 3415.0
519653.0 1111442.0 3313.0
510057.0 1106315.0 3284.0
511261.0 1106978.0 3279.0
513299.0 1108175.0 3303.0
514116.0 1108635.0 3375.0
514555.0 1108828.0 3245.0
515357.0 1109295.0 3253.0
515795.0 1109545.0 3280.0
516196.0 1109807.0 3312.0
516623.0 1110017.0 3245.0
508926.0 1105999.0 3320.0
514058.0 1108835.0 3356.0
514427.0 1109047.0 3342.0
514823.0 1109254.0 3312.0
515588.0 1109703.0 3416.0
516435.0 1110118.0 3337.0
515461.0 1109838.0 3356.0
516671.0 1110427.0 3292.0
518168.0 1111378.0 3374.0
511503.0 1107871.0 3305.0
513603.0 1109035.0 3380.0
518630.0 1111791.0 3240.0
508274.0 1106321.0 3277.0
508660.0 1106534.0 3261.0
510694.0 1107640.0 3383.0
510563.0 1107893.0 3426.0
516829.0 1111644.0 3300.0
519326.0 1113105.0 3357.0
518548.0 1113035.0 3392.0
511023.0 1109253.0 3374.0
516053.0 1111965.0 3291.0
516844.0 1112876.0 3417.0
517731.0 1113342.0 3384.0
518997.0 1113972.0 3247.0
507962.0 1108644.0 3357.0
508321.0 1108794.0 3277.0
511834.0 1110686.0 3272.0
512218.0 1110890.0 3278.0
512574.0 1111094.0 3248.0
516500.0 1113275.0 3258.0
508530.0 1109191.0 3306.0
511432.0 1110774.0 3310.0
511843.0 1110945.0 3343.0
512648.0 1111426.0 3328.0
515576.0 1113056.0 3367.0
516851.0 1113786.0 3432.0
511235.0 1110864.0 3249.0
512766.0 1111750.0 3397.0
515133.0 1113069.0 3409.0
512632.0 1111834.0 3329.0
514909.0 1113144.0 3372.0
515294.0 1113289.0 3263.0
507608.0 1109418.0 3352.0
510454.0 1110909.0 3299.0
514585.0 1113190.0 3332.0
514975.0 1113359.0 3302.0
511618.0 1111781.0 3416.0
509287.0 1110811.0 3372.0
515838.0 1114345.0 3374.0
510181.0 1111910.0 3255.0
512942.0 1113388.0 3377.0
516100.0 1115103.0 3307.0
510777.0 1112586.0 3366.0
511747.0 1113453.0 3395.0
519397.0 1113222.0 3285.0
519076.0 1114240.0 3273.0
518959.0 1112882.0 3361.0
519251.0 1106193.0 3238.0
518419.0 1113934.0 3289.0
518996.0 1106731.0 3268.0
519053.0 1106220.0 3279.0
518859.0 1106626.0 3416.0
518023.0 1113591.0 3338.0
517817.0 1111909.0 3284.0
517360.0 1115572.0 3356.0
517450.0 1114562.0 3244.0
517705.0 1112042.0 3378.0
517740.0 1110967.0 3315.0
517231.0 1115525.0 3348.0
517560.0 1111110.0 3313.0
517569.0 1110571.0 3261.0
517353.0 1110907.0 3342.0
517444.0 1110317.0 3429.0
517530.0 1109237.0 3403.0
517583.0 1107533.0 3377.0
516930.0 1113833.0 3363.0
517168.0 1110724.0 3334.0
517371.0 1107635.0 3265.0
516921.0 1110521.0 3266.0
517058.0 1108290.0 3290.0
517355.0 1105001.0 3241.0
516429.0 1115154.0 3378.0
516815.0 1110548.0 3394.0
516858.0 1110007.0 3413.0
516801.0 1109422.0 3240.0
516833.0 1108872.0 3269.0
516891.0 1108293.0 3394.0
516166.0 1114763.0 3357.0
516321.0 1111613.0 3258.0
516449.0 1110533.0 3321.0
516577.0 1109023.0 3388.0
516571.0 1108522.0 3315.0
515935.0 1115090.0 3360.0
516223.0 1110106.0 3345.0
516226.0 1109534.0 3243.0
516425.0 1107307.0 3358.0
515655.0 1114570.0 3247.0
515725.0 1113431.0 3290.0
516114.0 1108376.0 3296.0
515553.0 1113369.0 3350.0
515743.0 1110180.0 3282.0
515894.0 1108684.0 3437.0
515855.0 1108181.0 3272.0
515553.0 1109853.0 3420.0
515655.0 1107645.0 3328.0
515125.0 1113435.0 3415.0
515466.0 1108261.0 3379.0
514842.0 1113434.0 3296.0
515353.0 1106122.0 3243.0
515161.0 1106917.0 3376.0
515168.0 1106384.0 3364.0
514852.0 1107083.0 3259.0
514887.0 1106516.0 3261.0
514549.0 1108378.0 3264.0
514738.0 1105779.0 3323.0
514755.0 1105261.0 3251.0
514863.0 1104766.0 3419.0
514283.0 1108651.0 3260.0
514445.0 1106984.0 3248.0
514582.0 1105315.0 3408.0
514464.0 1104069.0 3392.0
514499.0 1102939.0 3269.0
513977.0 1106127.0 3310.0
514097.0 1104077.0 3250.0
513809.0 1105754.0 3379.0
513312.0 1109808.0 3362.0
513663.0 1104108.0 3245.0
513280.0 1108119.0 3419.0
513539.0 1103974.0 3292.0
513218.0 1105666.0 3387.0
513333.0 1104528.0 3322.0
513364.0 1103980.0 3345.0
512997.0 1105526.0 3368.0
512288.0 1111549.0 3244.0
512381.0 1110486.0 3353.0
512458.0 1109954.0 3407.0
512428.0 1108884.0 3256.0
512529.0 1107373.0 3241.0
512698.0 1106343.0 3400.0
512089.0 1110721.0 3271.0
512485.0 1104511.0 3304.0
512048.0 1107881.0 3292.0
511690.0 1110979.0 3327.0
511870.0 1107839.0 3332.0
511989.0 1102492.0 3301.0
511356.0 1110112.0 3306.0
511677.0 1104885.0 3344.0
511698.0 1104294.0 3291.0
511793.0 1103717.0 3423.0
511895.0 1102581.0 3404.0
511182.0 1108890.0 3248.0
511364.0 1106780.0 3419.0
511486.0 1104695.0 3350.0
510763.0 1112797.0 3369.0
510827.0 1111098.0 3260.0
511081.0 1107090.0 3293.0
511171.0 1106557.0 3395.0
510562.0 1112931.0 3279.0
510587.0 1112385.0 3361.0
510869.0 1107720.0 3430.0
510963.0 1106604.0 3423.0
510395.0 1111018.0 3301.0
510593.0 1107893.0 3280.0
510678.0 1106810.0 3389.0
510800.0 1104691.0 3305.0
510231.0 1106480.0 3311.0
510373.0 1103553.0 3265.0
510045.0 1106317.0 3287.0
509840.0 1106096.0 3351.0
508709.0 1108323.0 3259.0
508310.0 1108752.0 3392.0
508190.0 1108540.0 3409.0
507433.0 1110445.0 3264.0
507539.0 1108697.0 3370.0
507420.0 1108896.0 3356.0
510867.0 1114328.0 3387.0
510643.0 1112791.0 3305.0
510826.0 1112647.0 3422.0
507476.0 1110442.0 3242.0
516845.0 1115582.0 3318.0
516021.0 1115151.0 3303.0
512756.0 1113272.0 3296.0
516396.0 1115040.0 3384.0
515579.0 1114606.0 3278.0
517277.0 1115364.0 3238.0
516434.0 1114853.0 3277.0
516024.0 1114577.0 3335.0
517710.0 1115313.0 3424.0
516902.0 1114901.0 3261.0
515661.0 1114187.0 3422.0
515258.0 1113880.0 3398.0
514892.0 1113642.0 3334.0
514456.0 1113380.0 3433.0
514836.0 1113237.0 3410.0
507460.0 1108932.0 3272.0
515772.0 1113484.0 3430.0
511704.0 1111117.0 3380.0
515713.0 1113167.0 3270.0
512575.0 1111342.0 3244.0
511740.0 1110852.0 3345.0
517804.0 1113989.0 3429.0
516917.0 1113504.0 3351.0
507490.0 1108029.0 3300.0
517813.0 1113698.0 3323.0
516570.0 1113083.0 3358.0
515803.0 1112607.0 3304.0
514130.0 1111657.0 3435.0
512157.0 1110456.0 3364.0
510731.0 1109387.0 3398.0
518309.0 1113553.0 3243.0
513665.0 1110610.0 3394.0
512474.0 1109931.0 3400.0
518930.0 1113191.0 3271.0
519292.0 1113207.0 3252.0
518123.0 1112543.0 3284.0
510482.0 1108147.0 3377.0
508047.0 1106682.0 3255.0
518326.0 1112424.0 3276.0
517937.0 1112199.0 3308.0
514320.0 1110136.0 3318.0
513588.0 1109708.0 3352.0
511172.0 1108336.0 3311.0
510730.0 1108066.0 3269.0
518657.0 1112397.0 3265.0
517865.0 1111914.0 3310.0
516202.0 1110983.0 3318.0
517069.0 1111122.0 3367.0
517522.0 1111178.0 3283.0
517135.0 1110918.0 3392.0
516734.0 1110685.0 3391.0
516343.0 1110464.0 3403.0
515555.0 1110030.0 3380.0
515156.0 1109800.0 3393.0
512327.0 1108242.0 3248.0
518201.0 1111293.0 3293.0
517772.0 1111057.0 3313.0
517363.0 1110796.0 3366.0
516906.0 1110588.0 3282.0
516472.0 1110330.0 3304.0
516055.0 1110060.0 3398.0
512168.0 1107896.0 3263.0
511741.0 1107639.0 3397.0
511336.0 1107404.0 3294.0
518044.0 1110984.0 3401.0
517653.0 1110784.0 3258.0
517269.0 1110536.0 3326.0
516912.0 1110280.0 3410.0
516029.0 1109864.0 3282.0
510780.0 1106844.0 3343.0
510369.0 1106610.0 3299.0
517504.0 1110475.0 3287.0
514321.0 1108674.0 3244.0
509948.0 1106160.0 3264.0
517590.0 1110331.0 3296.0
514216.0 1108406.0 3351.0
514323.0 1108257.0 3274.0
512652.0 1107348.0 3259.0
511460.0 1106624.0 3244.0
516646.0 1109211.0 3356.0
516275.0 1109032.0 3412.0
514699.0 1108137.0 3427.0
514279.0 1107919.0 3413.0
517512.0 1109452.0 3353.0
516659.0 1108998.0 3321.0
514525.0 1107742.0 3411.0
518135.0 1109561.0 3338.0
508782.0 1104178.0 3250.0
515403.0 1107665.0 3345.0
511013.0 1105152.0 3319.0
515113.0 1107271.0 3325.0
512930.0 1106059.0 3328.0
510848.0 1104862.0 3323.0
516996.0 1108085.0 3351.0
515333.0 1107162.0 3387.0
514941.0 1106966.0 3266.0
513800.0 1106253.0 3338.0
512906.0 1105844.0 3247.0
511714.0 1105157.0 3243.0
508886.0 1103493.0 3321.0
517170.0 1107945.0 3289.0
515594.0 1107046.0 3389.0
515228.0 1106840.0 3384.0
514054.0 1106204.0 3285.0
512896.0 1105514.0 3389.0
511669.0 1104831.0 3374.0
511248.0 1104703.0 3258.0
515110.0 1106533.0 3345.0
513856.0 1105843.0 3402.0
512945.0 1105384.0 3238.0
511679.0 1104588.0 3388.0
510468.0 1103880.0 3375.0
517504.0 1107607.0 3356.0
513872.0 1105590.0 3435.0
512212.0 1104699.0 3314.0
515226.0 1106125.0 3280.0
517127.0 1106487.0 3424.0
514732.0 1105280.0 3250.0
514815.0 1105138.0 3246.0
513666.0 1104419.0 3423.0
510878.0 1102879.0 3358.0
513434.0 1104199.0 3255.0
511349.0 1102935.0 3394.0
510940.0 1102783.0 3339.0
513838.0 1104216.0 3272.0
518962.0 1106731.0 3350.0
514223.0 1104138.0 3291.0
511852.0 1102763.0 3417.0
518969.0 1106410.0 3315.0
514772.0 1104068.0 3417.0
519635.0 1106400.0 3365.0
519668.0 1106081.0 3357.0
508118.0 1103354.0 3198.0
507909.0 1106390.0 3058.0
508346.0 1103925.0 3088.0
508071.0 1106671.0 3168.0
507714.0 1110508.0 3059.0
508806.0 1103851.0 3096.0
508522.0 1106913.0 3133.0
508386.0 1108467.0 3087.0
509108.0 1103718.0 3067.0
508791.0 1107044.0 3089.0
508912.0 1108380.0 3068.0
509421.0 1105289.0 3081.0
509080.0 1108352.0 3191.0
509776.0 1103787.0 3188.0
510026.0 1103803.0 3154.0
509931.0 1111757.0 3060.0
510213.0 1110951.0 3132.0
510031.0 1113162.0 3095.0
510255.0 1113075.0 3085.0
510196.0 1113545.0 3149.0
510515.0 1112397.0 3237.0
510472.0 1112923.0 3156.0
511045.0 1109083.0 3117.0
510712.0 1112997.0 3074.0
511753.0 1104440.0 3117.0
511594.0 1105964.0 3114.0
511141.0 1111165.0 3205.0
512017.0 1104179.0 3118.0
511538.0 1110388.0 3053.0
511376.0 1111504.0 3150.0
512300.0 1103975.0 3092.0
512270.0 1104542.0 3090.0
512229.0 1105123.0 3122.0
512527.0 1104031.0 3200.0
512500.0 1104552.0 3126.0
512443.0 1105063.0 3159.0
512139.0 1108721.0 3197.0
512153.0 1109274.0 3096.0
512836.0 1103472.0 3061.0
512751.0 1104040.0 3184.0
512706.0 1104600.0 3188.0
512712.0 1105133.0 3113.0
512989.0 1103527.0 3143.0
512685.0 1107639.0 3138.0
512355.0 1111210.0 3217.0
513187.0 1103406.0 3219.0
512858.0 1107838.0 3217.0
513467.0 1103286.0 3114.0
513441.0 1103848.0 3097.0
513689.0 1103624.0 3053.0
513272.0 1108811.0 3133.0
513875.0 1103540.0 3229.0
513178.0 1112991.0 3054.0
514184.0 1103980.0 3110.0
514382.0 1103789.0 3158.0
514673.0 1103471.0 3058.0
514693.0 1107007.0 3176.0
514976.0 1106783.0 3218.0
514900.0 1108368.0 3176.0
514822.0 1109428.0 3074.0
516032.0 1106495.0 3063.0
515794.0 1109650.0 3143.0
515742.0 1110159.0 3104.0
515526.0 1113290.0 3079.0
516033.0 1108459.0 3222.0
515866.0 1110710.0 3223.0
516506.0 1106372.0 3115.0
516136.0 1111492.0 3167.0
516092.0 1112022.0 3220.0
515998.0 1115154.0 3174.0
516638.0 1109848.0 3140.0
516260.0 1114961.0 3218.0
517148.0 1107270.0 3075.0
516661.0 1114028.0 3219.0
516639.0 1114553.0 3094.0
516574.0 1115055.0 3089.0
516889.0 1114305.0 3202.0
517441.0 1111610.0 3150.0
517915.0 1109683.0 3132.0
518114.0 1109494.0 3216.0
518137.0 1110038.0 3106.0
518042.0 1111204.0 3210.0
518329.0 1114509.0 3056.0
518591.0 1113818.0 3110.0
518440.0 1114943.0 3095.0
518388.0 1115488.0 3119.0
518978.0 1111331.0 3081.0
518854.0 1112537.0 3121.0
518800.0 1113717.0 3094.0
519524.0 1105958.0 3142.0
519117.0 1111262.0 3212.0
519134.0 1113933.0 3179.0
519443.0 1112639.0 3148.0
519623.0 1113002.0 3095.0
519532.0 1113541.0 3221.0
519756.0 1114216.0 3178.0
519602.0 1102624.0 3217.0
519557.0 1102791.0 3118.0
519585.0 1105911.0 3224.0
514537.0 1103179.0 3154.0
517470.0 1104870.0 3111.0
519559.0 1106097.0 3128.0
514353.0 1103340.0 3215.0
514730.0 1103508.0 3054.0
519623.0 1106334.0 3049.0
514359.0 1103547.0 3166.0
518756.0 1106058.0 3232.0
519169.0 1106325.0 3199.0
513379.0 1103189.0 3119.0
513792.0 1103441.0 3208.0
513703.0 1103592.0 3180.0
512777.0 1103318.0 3042.0
512992.0 1103724.0 3160.0
512835.0 1103986.0 3219.0
512100.0 1103781.0 3042.0
512449.0 1103990.0 3059.0
517124.0 1106747.0 3171.0
512927.0 1104656.0 3213.0
513363.0 1104839.0 3055.0
515896.0 1106373.0 3178.0
517151.0 1107053.0 3184.0
511797.0 1104271.0 3149.0
517019.0 1107210.0 3099.0
509983.0 1103562.0 3215.0
511568.0 1104361.0 3108.0
511889.0 1104625.0 3184.0
512309.0 1104838.0 3192.0
512701.0 1105046.0 3162.0
515034.0 1106422.0 3231.0
516601.0 1107230.0 3114.0
509717.0 1103724.0 3230.0
511457.0 1104577.0 3077.0
512253.0 1105064.0 3163.0
514761.0 1106435.0 3068.0
509597.0 1103882.0 3162.0
512337.0 1105368.0 3106.0
513915.0 1106273.0 3180.0
508323.0 1103498.0 3176.0
509127.0 1103882.0 3132.0
512982.0 1106057.0 3211.0
514559.0 1106965.0 3195.0
518041.0 1108927.0 3213.0
508175.0 1103586.0 3101.0
508575.0 1103831.0 3170.0
509390.0 1104263.0 3041.0
511884.0 1105671.0 3123.0
514738.0 1107511.0 3110.0
517923.0 1109336.0 3054.0
518715.0 1109827.0 3169.0
515620.0 1108280.0 3191.0
517178.0 1109176.0 3184.0
518011.0 1109617.0 3168.0
509396.0 1105051.0 3099.0
515641.0 1108514.0 3094.0
509250.0 1105270.0 3046.0
516813.0 1109437.0 3041.0
509549.0 1105737.0 3216.0
509926.0 1105999.0 3221.0
512668.0 1107455.0 3161.0
516578.0 1109621.0 3087.0
519242.0 1111179.0 3097.0
519142.0 1111366.0 3156.0
519581.0 1111590.0 3065.0
518444.0 1111157.0 3041.0
512760.0 1108211.0 3048.0
514690.0 1109329.0 3058.0
512368.0 1108255.0 3163.0
513208.0 1108719.0 3124.0
514877.0 1109651.0 3195.0
515714.0 1110095.0 3101.0
511480.0 1107992.0 3228.0
517446.0 1111362.0 3230.0
508248.0 1106591.0 3209.0
508681.0 1106780.0 3050.0
517231.0 1111511.0 3121.0
518757.0 1112413.0 3198.0
507777.0 1106625.0 3203.0
508178.0 1106816.0 3129.0
508598.0 1107045.0 3154.0
517675.0 1112073.0 3088.0
511873.0 1109219.0 3162.0
516588.0 1111770.0 3105.0
509149.0 1108121.0 3140.0
511062.0 1109130.0 3068.0
512216.0 1109758.0 3075.0
519518.0 1113833.0 3112.0
518219.0 1113504.0 3146.0
518603.0 1113716.0 3158.0
507843.0 1108222.0 3186.0
512172.0 1110474.0 3137.0
512549.0 1110760.0 3228.0
517294.0 1113338.0 3108.0
518126.0 1113790.0 3201.0
518932.0 1114205.0 3043.0
511488.0 1110431.0 3106.0
518093.0 1114102.0 3198.0
518498.0 1114290.0 3060.0
507788.0 1108716.0 3229.0
511087.0 1110520.0 3188.0
512269.0 1111174.0 3235.0
518125.0 1114390.0 3153.0
512401.0 1111463.0 3200.0
515575.0 1113220.0 3129.0
517571.0 1114310.0 3131.0
511102.0 1110976.0 3147.0
516513.0 1113903.0 3046.0
516926.0 1114130.0 3071.0
512551.0 1111989.0 3112.0
512946.0 1112216.0 3087.0
516665.0 1114251.0 3148.0
517889.0 1114944.0 3209.0
510533.0 1111095.0 3128.0
512493.0 1112116.0 3109.0
513210.0 1112584.0 3115.0
514810.0 1113415.0 3112.0
516728.0 1114540.0 3198.0
510085.0 1111160.0 3192.0
510256.0 1111604.0 3216.0
511144.0 1111940.0 3041.0
516075.0 1114692.0 3198.0
516474.0 1114941.0 3179.0
509878.0 1111720.0 3237.0
510415.0 1112313.0 3120.0
510563.0 1112725.0 3153.0
510938.0 1112966.0 3180.0
510306.0 1112858.0 3078.0
509910.0 1112974.0 3113.0
510317.0 1113140.0 3065.0
509785.0 1113094.0 3070.0
510154.0 1113331.0 3105.0
509629.0 1113229.0 3099.0
510023.0 1113393.0 3127.0
518890.0 1114732.0 3053.0
518785.0 1113928.0 3082.0
519511.0 1105602.0 3119.0
518604.0 1113831.0 3122.0
518553.0 1111163.0 3106.0
519034.0 1105693.0 3095.0
518091.0 1114536.0 3055.0
518188.0 1113979.0 3211.0
518369.0 1111105.0 3103.0
519082.0 1102732.0 3090.0
517949.0 1114113.0 3186.0
518220.0 1109506.0 3077.0
518025.0 1109812.0 3097.0
517848.0 1110235.0 3059.0
517940.0 1109665.0 3086.0
517421.0 1115119.0 3236.0
517587.0 1111492.0 3112.0
517715.0 1110436.0 3226.0
517810.0 1109448.0 3218.0
517650.0 1109446.0 3221.0
516978.0 1115447.0 3173.0
517045.0 1114330.0 3134.0
517240.0 1111490.0 3127.0
516749.0 1115385.0 3067.0
516634.0 1113929.0 3144.0
516946.0 1109440.0 3118.0
517051.0 1108881.0 3228.0
517099.0 1107764.0 3138.0
516359.0 1114562.0 3071.0
516418.0 1110030.0 3147.0
516463.0 1109543.0 3171.0
515733.0 1112870.0 3237.0
515726.0 1109713.0 3211.0
515271.0 1113256.0 3190.0
515733.0 1106506.0 3173.0
515120.0 1108184.0 3103.0
515015.0 1107459.0 3225.0
514890.0 1105400.0 3042.0
514998.0 1104852.0 3198.0
514425.0 1109938.0 3216.0
514639.0 1106277.0 3090.0
514315.0 1108071.0 3195.0
514617.0 1103155.0 3118.0
513947.0 1109160.0 3052.0
513702.0 1110247.0 3234.0
513685.0 1109758.0 3215.0
514127.0 1103606.0 3176.0
513865.0 1104093.0 3231.0
513865.0 1103519.0 3117.0
513697.0 1103556.0 3174.0
513537.0 1103462.0 3186.0
513295.0 1103408.0 3092.0
512514.0 1111816.0 3136.0
512514.0 1111248.0 3198.0
512749.0 1108385.0 3198.0
512767.0 1107786.0 3210.0
512926.0 1104943.0 3080.0
513041.0 1103807.0 3189.0
513104.0 1103268.0 3115.0
512175.0 1112567.0 3048.0
512282.0 1111017.0 3187.0
512467.0 1108378.0 3222.0
512734.0 1104764.0 3235.0
512729.0 1104245.0 3143.0
512724.0 1103741.0 3076.0
512364.0 1105054.0 3098.0
512454.0 1103959.0 3052.0
511839.0 1110762.0 3217.0
512241.0 1103870.0 3044.0
512043.0 1104685.0 3224.0
512042.0 1104179.0 3179.0
512061.0 1103647.0 3080.0
511475.0 1110474.0 3215.0
511841.0 1104759.0 3217.0
511848.0 1104191.0 3086.0
511537.0 1106059.0 3159.0
511758.0 1103138.0 3151.0
510833.0 1113166.0 3067.0
511215.0 1104294.0 3146.0
510958.0 1104786.0 3191.0
510195.0 1113166.0 3087.0
510271.0 1112635.0 3206.0
510338.0 1111554.0 3209.0
510586.0 1106221.0 3083.0
510005.0 1113126.0 3047.0
510058.0 1112541.0 3129.0
510393.0 1106204.0 3108.0
510386.0 1102999.0 3196.0
510163.0 1103169.0 3132.0
509830.0 1103466.0 3202.0
508779.0 1107152.0 3161.0
508778.0 1106610.0 3116.0
508939.0 1104248.0 3049.0
508518.0 1106719.0 3106.0
508697.0 1104026.0 3120.0
508191.0 1109348.0 3047.0
508394.0 1106426.0 3215.0
508192.0 1107313.0 3134.0
508311.0 1103783.0 3053.0
508134.0 1103824.0 3147.0
507562.0 1110255.0 3070.0
510158.0 1113481.0 3086.0
510385.0 1112882.0 3209.0
509860.0 1112306.0 3177.0
510393.0 1112484.0 3229.0
509986.0 1112255.0 3154.0
513186.0 1113221.0 3128.0
515569.0 1114392.0 3075.0
511160.0 1111886.0 3098.0
510330.0 1111356.0 3155.0
516473.0 1114686.0 3189.0
517825.0 1115281.0 3077.0
514223.0 1113240.0 3223.0
517787.0 1115041.0 3120.0
517374.0 1114784.0 3093.0
516980.0 1114489.0 3210.0
516937.0 1114258.0 3058.0
516599.0 1113932.0 3234.0
515337.0 1113327.0 3141.0
512481.0 1111742.0 3058.0
507586.0 1108784.0 3201.0
516514.0 1113671.0 3107.0
512151.0 1111131.0 3219.0
508496.0 1108972.0 3213.0
518174.0 1114267.0 3147.0
511770.0 1110632.0 3139.0
519002.0 1114451.0 3223.0
518584.0 1114221.0 3136.0
518174.0 1114014.0 3188.0
519088.0 1114358.0 3054.0
518754.0 1114038.0 3204.0
518342.0 1113878.0 3128.0
512667.0 1110676.0 3184.0
519140.0 1114054.0 3180.0
508744.0 1108126.0 3076.0
519692.0 1114146.0 3198.0
519328.0 1113937.0 3161.0
518915.0 1113738.0 3088.0
518527.0 1113508.0 3121.0
516467.0 1112330.0 3115.0
508306.0 1107648.0 3038.0
518690.0 1113371.0 3085.0
516292.0 1111955.0 3210.0
513862.0 1110603.0 3128.0
511090.0 1108991.0 3234.0
508283.0 1107368.0 3129.0
518502.0 1113020.0 3149.0
516393.0 1111857.0 3118.0
516852.0 1111885.0 3051.0
516460.0 1111676.0 3108.0
508769.0 1107266.0 3041.0
516382.0 1111379.0 3198.0
512373.0 1109083.0 3179.0
508379.0 1106728.0 3153.0
507945.0 1106505.0 3075.0
518269.0 1112189.0 3237.0
517390.0 1111765.0 3038.0
514432.0 1110002.0 3225.0
513582.0 1109580.0 3187.0
518558.0 1112095.0 3124.0
517417.0 1111404.0 3168.0
508387.0 1106298.0 3045.0
519454.0 1112382.0 3079.0
512682.0 1108505.0 3122.0
511929.0 1107992.0 3196.0
515617.0 1109838.0 3232.0
512593.0 1108207.0 3092.0
518408.0 1111254.0 3144.0
515597.0 1109663.0 3172.0
512762.0 1108106.0 3070.0
511171.0 1107144.0 3126.0
518225.0 1110992.0 3083.0
517085.0 1110276.0 3132.0
516673.0 1110080.0 3127.0
512699.0 1107813.0 3171.0
510706.0 1106687.0 3138.0
510324.0 1106419.0 3157.0
517147.0 1110105.0 3228.0
516274.0 1109659.0 3162.0
514579.0 1108666.0 3142.0
510783.0 1106499.0 3197.0
510351.0 1106274.0 3141.0
509912.0 1106029.0 3185.0
509489.0 1105771.0 3131.0
515485.0 1108962.0 3121.0
511073.0 1106417.0 3225.0
510656.0 1106239.0 3120.0
509404.0 1105507.0 3082.0
511440.0 1106403.0 3074.0
511065.0 1106187.0 3127.0
510632.0 1105995.0 3044.0
518265.0 1109929.0 3126.0
517050.0 1109309.0 3140.0
516198.0 1108777.0 3148.0
515745.0 1108546.0 3124.0
511481.0 1106124.0 3174.0
509297.0 1104887.0 3164.0
517321.0 1109168.0 3188.0
516891.0 1108941.0 3130.0
516088.0 1108436.0 3199.0
515297.0 1107984.0 3221.0
511590.0 1105897.0 3152.0
507940.0 1103856.0 3078.0
515792.0 1107994.0 3056.0
515352.0 1107757.0 3213.0
514926.0 1107525.0 3132.0
515877.0 1107777.0 3146.0
512077.0 1105635.0 3167.0
512096.0 1105401.0 3141.0
510904.0 1104711.0 3170.0
512453.0 1105342.0 3211.0
510823.0 1104514.0 3114.0
508907.0 1103360.0 3154.0
517218.0 1107768.0 3217.0
514254.0 1106134.0 3235.0
512506.0 1105169.0 3164.0
512096.0 1104938.0 3155.0
510008.0 1103683.0 3085.0
514633.0 1106092.0 3179.0
513001.0 1105175.0 3178.0
512587.0 1104952.0 3160.0
511806.0 1104487.0 3181.0
513200.0 1105029.0 3138.0
512829.0 1104824.0 3089.0
512438.0 1104575.0 3171.0
512029.0 1104367.0 3047.0
517435.0 1107118.0 3088.0
512779.0 1104480.0 3156.0
512332.0 1104259.0 3071.0
511946.0 1104004.0 3171.0
517470.0 1106862.0 3165.0
513223.0 1104271.0 3219.0
512835.0 1104047.0 3151.0
512987.0 1103983.0 3188.0
515031.0 1104941.0 3142.0
513436.0 1104021.0 3206.0
513077.0 1103794.0 3224.0
513842.0 1103974.0 3209.0
513457.0 1103738.0 3227.0
513052.0 1103544.0 3146.0
514287.0 1103885.0 3170.0
513861.0 1103658.0 3166.0
513408.0 1103425.0 3079.0
513987.0 1103408.0 3088.0
519213.0 1105923.0 3159.0
517599.0 1105057.0 3093.0
519461.0 1105769.0 3236.0
519050.0 1105607.0 3152.0
517719.0 1104922.0 3046.0
508158.0 1106132.0 2947.0
507988.0 1108366.0 2874.0
508603.0 1103697.0 2972.0
508309.0 1106998.0 2997.0
508232.0 1108192.0 2898.0
507995.0 1110398.0 2913.0
508785.0 1104867.0 2985.0
508308.0 1109971.0 2859.0
508283.0 1110438.0 2858.0
509122.0 1104275.0 2895.0
509021.0 1105343.0 2869.0
508523.0 1110267.0 2978.0
509431.0 1103323.0 2945.0
509256.0 1105011.0 2956.0
509176.0 1105576.0 3029.0
508828.0 1109526.0 2918.0
509507.0 1104783.0 3027.0
510776.0 1105890.0 2899.0
510153.0 1112623.0 2936.0
510993.0 1106413.0 2857.0
510702.0 1109049.0 2855.0
510345.0 1112564.0 2936.0
510899.0 1109077.0 3012.0
511684.0 1105485.0 3006.0
511486.0 1108077.0 3029.0
511189.0 1111747.0 2877.0
511711.0 1108166.0 3023.0
512635.0 1103483.0 2972.0
512386.0 1107151.0 2866.0
512052.0 1110221.0 3007.0
512351.0 1109634.0 3012.0
512156.0 1112977.0 2920.0
513097.0 1103032.0 2948.0
513154.0 1105065.0 2945.0
512569.0 1112224.0 2986.0
513388.0 1105034.0 2959.0
512781.0 1112346.0 2996.0
512723.0 1112950.0 3036.0
513780.0 1103116.0 2886.0
513007.0 1112435.0 2994.0
512962.0 1112932.0 3034.0
514504.0 1106830.0 2928.0
514870.0 1105870.0 3010.0
514999.0 1107853.0 2989.0
514599.0 1113535.0 2867.0
515286.0 1108158.0 3026.0
515763.0 1106355.0 2961.0
516189.0 1107913.0 2877.0
515675.0 1114595.0 2978.0
516558.0 1105109.0 2847.0
516426.0 1106287.0 3017.0
515921.0 1113680.0 2919.0
516542.0 1107409.0 2958.0
516487.0 1107869.0 2860.0
516620.0 1107955.0 2946.0
516561.0 1109726.0 2986.0
516308.0 1111933.0 3010.0
516294.0 1112446.0 2884.0
516895.0 1107563.0 2890.0
516485.0 1113282.0 2894.0
516449.0 1113837.0 2920.0
516411.0 1114402.0 2880.0
517091.0 1109402.0 2975.0
517689.0 1105282.0 2868.0
517915.0 1105166.0 2909.0
517986.0 1110224.0 2859.0
517790.0 1112348.0 2933.0
517546.0 1114930.0 2972.0
519042.0 1102914.0 2998.0
518632.0 1110912.0 2841.0
519301.0 1102949.0 2920.0
518857.0 1111044.0 2917.0
518772.0 1114792.0 2889.0
519258.0 1110779.0 2949.0
518965.0 1114454.0 3010.0
518933.0 1114939.0 2941.0
519849.0 1102949.0 2986.0
519709.0 1106514.0 2880.0
519386.0 1111677.0 2916.0
519390.0 1113729.0 3006.0
519831.0 1111976.0 2838.0
519753.0 1112507.0 2948.0
518923.0 1102638.0 2998.0
517940.0 1105056.0 2895.0
519246.0 1105806.0 2972.0
517613.0 1105139.0 2987.0
513002.0 1102936.0 2968.0
512207.0 1102613.0 2844.0
512950.0 1103116.0 2990.0
512614.0 1103447.0 2981.0
512109.0 1104086.0 3006.0
512504.0 1104345.0 2982.0
513085.0 1104903.0 2894.0
515040.0 1105982.0 2881.0
510344.0 1103694.0 2972.0
509395.0 1103357.0 2921.0
512739.0 1105213.0 2857.0
516447.0 1107365.0 3007.0
516844.0 1107520.0 2857.0
516352.0 1107517.0 2927.0
516719.0 1107768.0 2931.0
508776.0 1103623.0 2908.0
509571.0 1104075.0 2965.0
513792.0 1106416.0 2963.0
508984.0 1104035.0 3032.0
509217.0 1104340.0 2882.0
515562.0 1107951.0 3028.0
514867.0 1107764.0 2947.0
515236.0 1108024.0 2971.0
517630.0 1109299.0 2872.0
518837.0 1110000.0 2883.0
516083.0 1108652.0 2939.0
508881.0 1104992.0 2924.0
510825.0 1106024.0 2913.0
512392.0 1106941.0 2972.0
515173.0 1108456.0 2935.0
517166.0 1109579.0 2905.0
517966.0 1110038.0 2839.0
519162.0 1110684.0 2845.0
509159.0 1105455.0 3009.0
517943.0 1110572.0 2878.0
518842.0 1111369.0 2936.0
519247.0 1111614.0 2924.0
519068.0 1111679.0 2856.0
519852.0 1112128.0 2840.0
519929.0 1112427.0 2845.0
507998.0 1106010.0 2846.0
514688.0 1109717.0 3031.0
515468.0 1110153.0 3006.0
517879.0 1111481.0 2924.0
519498.0 1112453.0 2948.0
507936.0 1106287.0 2923.0
509005.0 1107257.0 3036.0
513572.0 1109691.0 2916.0
513955.0 1109928.0 3002.0
516030.0 1111107.0 2988.0
517300.0 1111801.0 2948.0
517833.0 1112403.0 2910.0
510331.0 1108694.0 2982.0
511450.0 1109315.0 2975.0
518817.0 1113337.0 2857.0
510401.0 1109012.0 2839.0
512039.0 1110011.0 3000.0
508324.0 1108265.0 2857.0
518592.0 1113873.0 2971.0
508228.0 1108819.0 2880.0
518482.0 1114951.0 2964.0
510937.0 1111058.0 2956.0
516302.0 1113931.0 2864.0
517116.0 1114374.0 2889.0
518375.0 1115116.0 2978.0
510968.0 1111254.0 2920.0
511320.0 1111471.0 2935.0
512880.0 1112299.0 2886.0
516394.0 1114218.0 2915.0
518364.0 1115322.0 2973.0
508219.0 1110075.0 2895.0
508615.0 1110213.0 2840.0
510530.0 1111274.0 2901.0
511251.0 1111710.0 2980.0
512477.0 1112307.0 2842.0
512801.0 1112513.0 2883.0
513180.0 1112748.0 2874.0
514720.0 1113538.0 2921.0
517408.0 1115084.0 3028.0
518220.0 1115490.0 2946.0
507933.0 1110203.0 2866.0
512822.0 1112878.0 3011.0
513188.0 1113018.0 2926.0
512984.0 1113288.0 3005.0
510097.0 1112062.0 2991.0
510763.0 1113037.0 2898.0
510628.0 1113386.0 2848.0
519103.0 1112015.0 2883.0
519549.0 1106048.0 2854.0
518646.0 1114498.0 2844.0
518534.0 1114345.0 2970.0
518660.0 1112260.0 2947.0
518726.0 1111270.0 2987.0
519247.0 1105687.0 3033.0
518384.0 1113397.0 2974.0
517578.0 1114808.0 2918.0
517627.0 1114243.0 2943.0
517682.0 1113663.0 2942.0
517913.0 1110370.0 2869.0
518022.0 1109298.0 2997.0
517494.0 1114763.0 3026.0
517551.0 1114202.0 2992.0
517357.0 1114028.0 2929.0
517219.0 1113878.0 2932.0
517350.0 1111642.0 2991.0
517266.0 1109738.0 2843.0
517698.0 1105281.0 3009.0
516815.0 1113325.0 2857.0
516923.0 1111784.0 2902.0
517115.0 1109650.0 2982.0
517293.0 1107127.0 3014.0
516481.0 1114489.0 2838.0
516726.0 1111681.0 2848.0
517033.0 1107183.0 2912.0
516407.0 1114000.0 2979.0
516550.0 1111695.0 3018.0
516774.0 1107713.0 2876.0
516882.0 1107136.0 2977.0
516490.0 1107473.0 2853.0
516614.0 1106952.0 3033.0
516563.0 1106422.0 2861.0
516762.0 1104937.0 2957.0
516221.0 1108400.0 2995.0
516213.0 1107857.0 2868.0
516348.0 1106235.0 2857.0
515994.0 1107763.0 2893.0
515458.0 1112870.0 2988.0
514922.0 1110769.0 2972.0
515050.0 1108712.0 2975.0
515062.0 1105248.0 2900.0
514631.0 1108815.0 2999.0
514701.0 1107647.0 3033.0
514443.0 1107807.0 2945.0
514126.0 1109152.0 3001.0
513866.0 1109740.0 2869.0
513394.0 1113427.0 3005.0
513650.0 1109246.0 3032.0
513100.0 1113146.0 2906.0
513901.0 1102984.0 3011.0
512944.0 1112828.0 3001.0
512792.0 1112882.0 2958.0
513277.0 1105482.0 2872.0
512629.0 1112967.0 2940.0
512630.0 1112406.0 3024.0
512332.0 1112996.0 2843.0
512381.0 1112437.0 2911.0
512530.0 1109514.0 2857.0
512083.0 1113069.0 2868.0
512286.0 1109447.0 2891.0
512789.0 1103279.0 3006.0
511589.0 1110422.0 3007.0
511643.0 1109374.0 2948.0
512104.0 1102577.0 3006.0
511442.0 1109325.0 2963.0
511661.0 1105882.0 3021.0
511868.0 1103577.0 3025.0
511861.0 1103060.0 2887.0
511504.0 1105443.0 2918.0
511148.0 1107287.0 3010.0
511030.0 1104850.0 2886.0
510431.0 1111247.0 2850.0
510603.0 1108856.0 2943.0
510822.0 1105991.0 2934.0
509807.0 1112941.0 3018.0
510087.0 1103696.0 3029.0
509856.0 1103788.0 2898.0
509574.0 1105229.0 2968.0
509360.0 1105291.0 3021.0
509060.0 1105411.0 2950.0
509152.0 1103736.0 2936.0
508931.0 1103658.0 3015.0
508281.0 1109360.0 2863.0
508328.0 1107750.0 2857.0
508200.0 1108189.0 2957.0
507906.0 1110283.0 2890.0
507740.0 1110213.0 2921.0
510018.0 1113168.0 3030.0
510709.0 1113419.0 2992.0
510717.0 1113238.0 2983.0
507768.0 1110427.0 2999.0
516763.0 1115407.0 2866.0
512720.0 1113072.0 2931.0
507859.0 1110222.0 2939.0
512900.0 1112977.0 2967.0
512515.0 1112679.0 2981.0
508078.0 1110127.0 2899.0
517250.0 1115198.0 2993.0
516030.0 1114465.0 3026.0
512705.0 1112632.0 2973.0
511094.0 1111637.0 3016.0
510231.0 1111237.0 2921.0
516242.0 1114443.0 3032.0
512581.0 1112369.0 2969.0
508228.0 1109535.0 2921.0
518533.0 1115217.0 2873.0
517320.0 1114524.0 2961.0
508331.0 1109359.0 2876.0
517611.0 1114418.0 2942.0
518586.0 1114562.0 3023.0
517274.0 1113914.0 2890.0
507952.0 1108180.0 3020.0
512236.0 1110467.0 2956.0
508180.0 1108136.0 2890.0
518711.0 1113872.0 3019.0
510539.0 1109140.0 2987.0
510734.0 1109120.0 2855.0
512310.0 1109772.0 3005.0
511449.0 1109328.0 2948.0
514197.0 1110655.0 2844.0
508180.0 1107179.0 2890.0
511994.0 1109288.0 2844.0
519096.0 1112955.0 3037.0
517059.0 1111913.0 2856.0
515064.0 1110798.0 2935.0
509117.0 1107285.0 2960.0
513972.0 1109837.0 2950.0
517764.0 1111684.0 2982.0
514478.0 1109930.0 2911.0
514082.0 1109698.0 2917.0
519828.0 1112585.0 2998.0
519051.0 1112186.0 2949.0
518665.0 1111960.0 2970.0
516433.0 1110152.0 3030.0
518615.0 1111227.0 2960.0
517881.0 1110413.0 2889.0
516694.0 1109750.0 2955.0
516279.0 1109524.0 2971.0
508973.0 1105326.0 2907.0
517767.0 1110098.0 2870.0
509410.0 1105283.0 3012.0
509067.0 1105034.0 3028.0
511860.0 1106418.0 2908.0
512383.0 1106430.0 2944.0
516162.0 1108248.0 2876.0
511705.0 1105730.0 3001.0
509720.0 1104649.0 2860.0
516279.0 1108121.0 2866.0
516475.0 1107996.0 2853.0
514505.0 1106856.0 2892.0
508439.0 1103415.0 2986.0
516358.0 1107659.0 2897.0
509220.0 1103626.0 2868.0
508484.0 1103171.0 3014.0
516603.0 1107290.0 2936.0
510945.0 1104117.0 2935.0
510097.0 1103665.0 2993.0
517101.0 1107321.0 2892.0
516771.0 1107060.0 2982.0
515578.0 1106414.0 2890.0
514806.0 1105953.0 2932.0
517012.0 1106898.0 3008.0
516569.0 1106713.0 2841.0
515735.0 1106247.0 2867.0
514908.0 1105772.0 2878.0
516658.0 1106480.0 2921.0
513443.0 1104714.0 2930.0
512620.0 1104201.0 2995.0
512210.0 1103992.0 2890.0
516764.0 1106313.0 3010.0
512385.0 1103864.0 3021.0
516774.0 1106194.0 2943.0
515050.0 1105257.0 2918.0
512500.0 1103804.0 2999.0
512621.0 1103633.0 3016.0
512580.0 1103394.0 2886.0
512973.0 1103242.0 2971.0
516781.0 1105007.0 2927.0
514379.0 1103646.0 3029.0
513550.0 1103225.0 2946.0
518165.0 1104965.0 2976.0
518914.0 1102966.0 2978.0
519447.0 1102653.0 2901.0
507465.0 1109747.0 2662.0
508249.0 1103865.0 2696.0
507879.0 1107998.0 2722.0
507678.0 1109461.0 2776.0
507679.0 1109969.0 2646.0
508464.0 1104508.0 2644.0
507871.0 1109976.0 2762.0
508623.0 1104814.0 2744.0
508102.0 1109849.0 2801.0
508868.0 1104372.0 2810.0
508808.0 1105401.0 2719.0
508404.0 1109450.0 2769.0
509746.0 1103293.0 2692.0
509273.0 1107909.0 2745.0
510478.0 1104147.0 2642.0
510206.0 1110141.0 2697.0
510068.0 1111199.0 2705.0
509994.0 1112305.0 2683.0
510550.0 1109286.0 2646.0
510316.0 1111468.0 2698.0
510781.0 1111375.0 2753.0
511775.0 1102713.0 2731.0
511168.0 1109594.0 2678.0
510969.0 1111867.0 2679.0
512562.0 1102836.0 2648.0
512451.0 1103402.0 2834.0
512211.0 1106894.0 2751.0
512005.0 1109721.0 2676.0
512773.0 1102924.0 2682.0
512981.0 1102871.0 2713.0
512631.0 1107469.0 2704.0
512605.0 1109708.0 2788.0
512385.0 1112724.0 2774.0
512980.0 1108930.0 2730.0
512805.0 1113486.0 2646.0
513382.0 1109372.0 2681.0
513583.0 1109759.0 2804.0
514606.0 1103319.0 2769.0
514277.0 1107988.0 2731.0
514722.0 1104058.0 2762.0
514305.0 1110081.0 2719.0
514977.0 1106450.0 2683.0
515170.0 1106765.0 2658.0
515941.0 1105205.0 2681.0
516239.0 1105464.0 2646.0
516137.0 1106009.0 2831.0
515831.0 1110722.0 2691.0
515487.0 1115305.0 2737.0
516421.0 1105123.0 2784.0
516065.0 1111244.0 2659.0
516424.0 1107521.0 2828.0
516224.0 1112568.0 2809.0
516070.0 1113576.0 2722.0
516309.0 1113580.0 2639.0
516224.0 1114141.0 2829.0
516857.0 1108712.0 2829.0
516931.0 1111993.0 2825.0
517434.0 1109314.0 2810.0
517278.0 1112084.0 2678.0
517732.0 1108723.0 2753.0
517551.0 1112184.0 2707.0
518642.0 1111913.0 2702.0
518539.0 1112949.0 2703.0
518956.0 1110458.0 2700.0
518857.0 1111617.0 2717.0
519153.0 1110196.0 2789.0
519111.0 1110760.0 2792.0
519064.0 1111980.0 2718.0
519220.0 1111838.0 2817.0
519193.0 1112388.0 2785.0
519402.0 1112225.0 2761.0
519317.0 1112767.0 2759.0
519645.0 1112067.0 2695.0
519409.0 1102812.0 2810.0
519467.0 1103032.0 2696.0
519189.0 1103092.0 2781.0
513237.0 1102483.0 2660.0
518076.0 1105262.0 2739.0
512522.0 1102314.0 2693.0
519586.0 1106417.0 2699.0
512619.0 1102795.0 2671.0
514613.0 1103917.0 2714.0
512438.0 1102921.0 2669.0
516017.0 1105276.0 2694.0
512256.0 1104399.0 2821.0
510466.0 1104159.0 2773.0
516202.0 1107684.0 2833.0
509832.0 1104343.0 2683.0
511514.0 1105338.0 2689.0
513181.0 1106261.0 2721.0
514059.0 1106707.0 2807.0
516110.0 1107865.0 2821.0
509063.0 1104449.0 2679.0
510970.0 1105439.0 2650.0
519229.0 1110177.0 2809.0
517405.0 1109312.0 2639.0
519068.0 1110331.0 2760.0
508520.0 1104689.0 2656.0
510492.0 1105775.0 2724.0
515607.0 1108580.0 2715.0
518803.0 1110413.0 2656.0
508829.0 1105209.0 2794.0
512315.0 1107124.0 2826.0
516971.0 1109718.0 2782.0
518172.0 1110344.0 2654.0
518529.0 1110666.0 2787.0
518918.0 1110773.0 2696.0
512171.0 1107308.0 2718.0
518358.0 1110776.0 2711.0
518767.0 1110964.0 2703.0
519662.0 1111799.0 2731.0
518676.0 1111399.0 2677.0
519483.0 1111858.0 2669.0
514579.0 1109287.0 2649.0
519108.0 1111882.0 2822.0
519557.0 1112120.0 2746.0
519128.0 1112121.0 2754.0
511791.0 1108345.0 2733.0
513347.0 1109200.0 2784.0
514161.0 1109597.0 2656.0
515700.0 1110484.0 2708.0
512725.0 1109534.0 2702.0
513483.0 1109922.0 2729.0
511882.0 1109447.0 2696.0
512683.0 1109795.0 2653.0
508736.0 1108477.0 2783.0
509948.0 1109046.0 2653.0
516223.0 1112541.0 2723.0
507722.0 1108243.0 2686.0
518918.0 1114429.0 2787.0
516534.0 1113282.0 2724.0
517366.0 1113767.0 2673.0
508166.0 1109061.0 2817.0
508578.0 1109212.0 2713.0
516399.0 1113507.0 2792.0
517282.0 1113993.0 2739.0
508092.0 1109205.0 2811.0
508462.0 1109388.0 2749.0
513080.0 1111889.0 2670.0
516207.0 1113617.0 2752.0
517353.0 1114236.0 2724.0
508120.0 1109464.0 2791.0
511359.0 1111131.0 2656.0
515506.0 1113448.0 2741.0
508287.0 1109764.0 2804.0
515258.0 1113513.0 2723.0
517268.0 1114602.0 2777.0
507161.0 1109389.0 2674.0
507882.0 1109810.0 2760.0
510927.0 1111454.0 2772.0
516318.0 1114369.0 2741.0
508368.0 1110340.0 2814.0
509998.0 1111190.0 2641.0
512439.0 1112578.0 2803.0
507568.0 1110309.0 2785.0
508383.0 1110636.0 2668.0
512287.0 1112834.0 2829.0
512825.0 1113398.0 2669.0
509852.0 1112215.0 2830.0
510230.0 1112304.0 2665.0
509952.0 1112451.0 2645.0
510729.0 1113240.0 2833.0
519489.0 1112258.0 2720.0
519254.0 1112195.0 2731.0
519231.0 1111697.0 2642.0
518952.0 1113046.0 2816.0
519070.0 1111464.0 2686.0
519092.0 1110951.0 2661.0
518710.0 1113370.0 2746.0
518732.0 1112293.0 2646.0
518779.0 1111707.0 2639.0
518901.0 1111151.0 2788.0
519604.0 1102888.0 2673.0
519350.0 1103186.0 2652.0
519451.0 1102734.0 2811.0
