531189.0 1130794.0 6321.0
530928.0 1135662.0 6329.0
531462.0 1130673.0 6320.0
531422.0 1131207.0 6363.0
532325.0 1132587.0 6341.0
532643.0 1131108.0 6341.0
532810.0 1132163.0 6367.0
532805.0 1132695.0 6323.0
532972.0 1131988.0 6351.0
533229.0 1133426.0 6252.0
533477.0 1133517.0 6254.0
533464.0 1134052.0 6257.0
534237.0 1120341.0 6400.0
533887.0 1131958.0 6244.0
534556.0 1126511.0 6250.0
534469.0 1127063.0 6423.0
534668.0 1126353.0 6394.0
534617.0 1128733.0 6370.0
535034.0 1120892.0 6354.0
534732.0 1128560.0 6380.0
534884.0 1128772.0 6375.0
535063.0 1128876.0 6296.0
535757.0 1122284.0 6373.0
535933.0 1130678.0 6432.0
535950.0 1131232.0 6352.0
538150.0 1132115.0 6289.0
534006.0 1120313.0 6280.0
534938.0 1122001.0 6424.0
534487.0 1126499.0 6347.0
534419.0 1127027.0 6299.0
534762.0 1128690.0 6430.0
535190.0 1128896.0 6299.0
534693.0 1128759.0 6338.0
531505.0 1127260.0 6428.0
531385.0 1127389.0 6415.0
538337.0 1131628.0 6367.0
535929.0 1130725.0 6413.0
530550.0 1127764.0 6399.0
536155.0 1131134.0 6405.0
538166.0 1132372.0 6416.0
532482.0 1131104.0 6258.0
533755.0 1132184.0 6256.0
530077.0 1130233.0 6426.0
530871.0 1130732.0 6323.0
533644.0 1132359.0 6295.0
530270.0 1130547.0 6287.0
530700.0 1130796.0 6247.0
532189.0 1131896.0 6244.0
531026.0 1131852.0 6310.0
532236.0 1132616.0 6410.0
533052.0 1133072.0 6264.0
533561.0 1133755.0 6357.0
530870.0 1135695.0 6308.0
536393.0 1130684.0 6420.0
536130.0 1130966.0 6406.0
535120.0 1128606.0 6354.0
534718.0 1128682.0 6405.0
533676.0 1134146.0 6403.0
533512.0 1133938.0 6278.0
533533.0 1130957.0 6333.0
534541.0 1120762.0 6383.0
533107.0 1130917.0 6287.0
532680.0 1132870.0 6254.0
532341.0 1132699.0 6415.0
532457.0 1130992.0 6326.0
532131.0 1132682.0 6419.0
531915.0 1132502.0 6390.0
531703.0 1132283.0 6415.0
531504.0 1132135.0 6364.0
531645.0 1130496.0 6399.0
531379.0 1127620.0 6279.0
530654.0 1130536.0 6258.0
530501.0 1130683.0 6373.0
530509.0 1130155.0 6255.0
530460.0 1127968.0 6398.0
528966.0 1127473.0 6285.0
528047.0 1134135.0 6364.0
533602.0 1134047.0 6296.0
533157.0 1133486.0 6395.0
530956.0 1131977.0 6336.0
532577.0 1132700.0 6278.0
532185.0 1132472.0 6261.0
531002.0 1131809.0 6259.0
532499.0 1132226.0 6239.0
532646.0 1131986.0 6418.0
530683.0 1130924.0 6343.0
533701.0 1132393.0 6243.0
530431.0 1130521.0 6413.0
531005.0 1130712.0 6264.0
532117.0 1130950.0 6282.0
531332.0 1130597.0 6373.0
530567.0 1130193.0 6280.0
532134.0 1130821.0 6311.0
533444.0 1130630.0 6389.0
537977.0 1132531.0 6357.0
538037.0 1132417.0 6266.0
528953.0 1127501.0 6245.0
536028.0 1131071.0 6384.0
535957.0 1130829.0 6342.0
531728.0 1128545.0 6255.0
530492.0 1127925.0 6254.0
536326.0 1130698.0 6353.0
536568.0 1130539.0 6368.0
532156.0 1128249.0 6283.0
532038.0 1127621.0 6426.0
534981.0 1128608.0 6418.0
534638.0 1126482.0 6245.0
534495.0 1120905.0 6407.0
528039.0 1134225.0 6147.0
529750.0 1127195.0 6152.0
530305.0 1127586.0 6196.0
531419.0 1128132.0 6074.0
531183.0 1131871.0 6197.0
531227.0 1135869.0 6114.0
531526.0 1135477.0 6131.0
531547.0 1136046.0 6063.0
532607.0 1134069.0 6068.0
532924.0 1131593.0 6168.0
533002.0 1133120.0 6226.0
533314.0 1131014.0 6220.0
533593.0 1132387.0 6120.0
534388.0 1127053.0 6152.0
534811.0 1122003.0 6127.0
534923.0 1120808.0 6231.0
535516.0 1122073.0 6074.0
535723.0 1122030.0 6042.0
535619.0 1130988.0 6087.0
535830.0 1131132.0 6119.0
534839.0 1120755.0 6133.0
534314.0 1127225.0 6142.0
531933.0 1127910.0 6172.0
529800.0 1127030.0 6202.0
531861.0 1128122.0 6100.0
538082.0 1131950.0 6219.0
529340.0 1127043.0 6217.0
529787.0 1127222.0 6043.0
535752.0 1130841.0 6236.0
529424.0 1127223.0 6089.0
530683.0 1128036.0 6135.0
535787.0 1131098.0 6070.0
529062.0 1127343.0 6225.0
532965.0 1131275.0 6196.0
532141.0 1131130.0 6223.0
532931.0 1131603.0 6103.0
533660.0 1132495.0 6219.0
530216.0 1130636.0 6080.0
530615.0 1130900.0 6127.0
532602.0 1132123.0 6221.0
530596.0 1131035.0 6199.0
532585.0 1132189.0 6183.0
531467.0 1132000.0 6104.0
533197.0 1133474.0 6189.0
533385.0 1133957.0 6218.0
531314.0 1135214.0 6072.0
531188.0 1135439.0 6101.0
538114.0 1132216.0 6215.0
538023.0 1132047.0 6225.0
534765.0 1128853.0 6136.0
535484.0 1121863.0 6053.0
534684.0 1126496.0 6208.0
533717.0 1133954.0 6113.0
534429.0 1126806.0 6132.0
534235.0 1127019.0 6162.0
534738.0 1122591.0 6232.0
534842.0 1120684.0 6043.0
533371.0 1133380.0 6054.0
534611.0 1121627.0 6102.0
533210.0 1133215.0 6051.0
533014.0 1131458.0 6145.0
534107.0 1120327.0 6231.0
532673.0 1132274.0 6119.0
532517.0 1132447.0 6210.0
531928.0 1127886.0 6125.0
531146.0 1135536.0 6120.0
530944.0 1135612.0 6230.0
531011.0 1130824.0 6139.0
530814.0 1130859.0 6159.0
530630.0 1127955.0 6165.0
530094.0 1127526.0 6106.0
529670.0 1127094.0 6133.0
529119.0 1133004.0 6087.0
529379.0 1127192.0 6228.0
528134.0 1134084.0 6151.0
531227.0 1135775.0 6139.0
530870.0 1135523.0 6188.0
531092.0 1135476.0 6132.0
531227.0 1135365.0 6043.0
533550.0 1133786.0 6165.0
531384.0 1132028.0 6226.0
532598.0 1132538.0 6153.0
531711.0 1132113.0 6067.0
531308.0 1131855.0 6054.0
530832.0 1130819.0 6181.0
531660.0 1130845.0 6075.0
532494.0 1131128.0 6049.0
531686.0 1130647.0 6139.0
533042.0 1131099.0 6067.0
535496.0 1131143.0 6065.0
535607.0 1130982.0 6078.0
529317.0 1127539.0 6080.0
528882.0 1127353.0 6161.0
529292.0 1127310.0 6118.0
531423.0 1127654.0 6206.0
534780.0 1128812.0 6186.0
533474.0 1126988.0 6096.0
534384.0 1127138.0 6172.0
534305.0 1126911.0 6146.0
534416.0 1126734.0 6114.0
534590.0 1121878.0 6145.0
529167.0 1132975.0 5980.0
529482.0 1132978.0 5846.0
530102.0 1127559.0 5914.0
530438.0 1128069.0 5901.0
530648.0 1128094.0 5997.0
530838.0 1131065.0 6005.0
531276.0 1128757.0 5939.0
531167.0 1131190.0 5874.0
531402.0 1128630.0 6027.0
531680.0 1128225.0 6011.0
531300.0 1135286.0 6030.0
532216.0 1131743.0 5955.0
532540.0 1131462.0 5850.0
533063.0 1134270.0 5856.0
533011.0 1134854.0 5879.0
533904.0 1120535.0 5862.0
533680.0 1127333.0 5868.0
533921.0 1127428.0 5912.0
534156.0 1127747.0 5883.0
534718.0 1121989.0 5847.0
534876.0 1120860.0 5901.0
534878.0 1129141.0 5946.0
535085.0 1131290.0 5904.0
535839.0 1119640.0 5873.0
535467.0 1131087.0 5967.0
535865.0 1122287.0 6033.0
536616.0 1120614.0 5935.0
538001.0 1132181.0 5882.0
538281.0 1131514.0 6001.0
538503.0 1133410.0 5840.0
536435.0 1120476.0 5931.0
533892.0 1120506.0 5898.0
533591.0 1120595.0 5922.0
535779.0 1122232.0 5853.0
534788.0 1122360.0 5900.0
533621.0 1127264.0 5841.0
534851.0 1129081.0 5925.0
537710.0 1131659.0 6029.0
529871.0 1127424.0 5868.0
530279.0 1127737.0 6003.0
535142.0 1131177.0 5840.0
529743.0 1129659.0 5994.0
529772.0 1129841.0 5884.0
532098.0 1131325.0 6015.0
532910.0 1131730.0 5857.0
529919.0 1130169.0 5939.0
532023.0 1131458.0 5924.0
531047.0 1131084.0 5994.0
531846.0 1131497.0 5908.0
532825.0 1133190.0 5931.0
527817.0 1130929.0 5839.0
532684.0 1133713.0 5884.0
533011.0 1134157.0 5854.0
529145.0 1132996.0 5978.0
533005.0 1135182.0 5869.0
528432.0 1133521.0 6001.0
528814.0 1133645.0 5882.0
531310.0 1135776.0 6031.0
537747.0 1131051.0 5865.0
535273.0 1131165.0 5932.0
535908.0 1122265.0 5838.0
533847.0 1134032.0 5988.0
534306.0 1127344.0 5951.0
534831.0 1122427.0 5944.0
534691.0 1121653.0 5990.0
533011.0 1134839.0 5863.0
533751.0 1127143.0 5993.0
532816.0 1135669.0 5900.0
532879.0 1135144.0 5891.0
533020.0 1133109.0 6020.0
533195.0 1131140.0 5986.0
533575.0 1127115.0 6014.0
532782.0 1132522.0 5865.0
533917.0 1121282.0 5886.0
533798.0 1120264.0 5856.0
532501.0 1131402.0 5916.0
531506.0 1136056.0 6007.0
531324.0 1135521.0 6023.0
531355.0 1131585.0 5899.0
531209.0 1130984.0 6030.0
531454.0 1127983.0 5971.0
530767.0 1127979.0 5981.0
529809.0 1127318.0 5913.0
529474.0 1127296.0 6004.0
528330.0 1134196.0 5982.0
526727.0 1133610.0 5838.0
531603.0 1136042.0 5988.0
528056.0 1134030.0 6007.0
531479.0 1135756.0 5973.0
531458.0 1135337.0 5919.0
532826.0 1135641.0 5842.0
529280.0 1133115.0 5931.0
533078.0 1135014.0 5891.0
533887.0 1134096.0 5911.0
533249.0 1133420.0 5998.0
533243.0 1133224.0 5998.0
532905.0 1133038.0 5844.0
531350.0 1131016.0 5916.0
533625.0 1131983.0 5979.0
532817.0 1131524.0 6000.0
532443.0 1131284.0 5946.0
529715.0 1129824.0 5877.0
532914.0 1131309.0 5991.0
534926.0 1131318.0 5928.0
535138.0 1131201.0 5937.0
537947.0 1132242.0 6000.0
531712.0 1128374.0 5969.0
530041.0 1127479.0 5848.0
529602.0 1127244.0 6028.0
531366.0 1127886.0 6028.0
533519.0 1127183.0 6019.0
534253.0 1127431.0 5876.0
533831.0 1127221.0 5942.0
534559.0 1122289.0 5854.0
534997.0 1121879.0 6007.0
533849.0 1121271.0 5955.0
535728.0 1122032.0 5918.0
536061.0 1121936.0 6030.0
534384.0 1121160.0 5841.0
534808.0 1120835.0 5857.0
534054.0 1120442.0 5960.0
528000.0 1131086.0 5767.0
529483.0 1129271.0 5746.0
529728.0 1129565.0 5828.0
531058.0 1131291.0 5816.0
531355.0 1131353.0 5777.0
532816.0 1131715.0 5730.0
532717.0 1133475.0 5790.0
532883.0 1134333.0 5755.0
532852.0 1134852.0 5831.0
533666.0 1120525.0 5812.0
532998.0 1135439.0 5832.0
533416.0 1132284.0 5836.0
533833.0 1131291.0 5682.0
534706.0 1120733.0 5779.0
534749.0 1122602.0 5727.0
534333.0 1131414.0 5778.0
534921.0 1121426.0 5703.0
534810.0 1122505.0 5832.0
534660.0 1129895.0 5704.0
534798.0 1129389.0 5788.0
534726.0 1131263.0 5804.0
535156.0 1121608.0 5828.0
538311.0 1133345.0 5713.0
539101.0 1131266.0 5683.0
539089.0 1131877.0 5648.0
539266.0 1131943.0 5669.0
536427.0 1120584.0 5811.0
534348.0 1120527.0 5698.0
534730.0 1120793.0 5733.0
535519.0 1121301.0 5692.0
536352.0 1121816.0 5774.0
535219.0 1121313.0 5655.0
536109.0 1121874.0 5807.0
534463.0 1121030.0 5679.0
535035.0 1121792.0 5835.0
535427.0 1122031.0 5791.0
533860.0 1121288.0 5728.0
535153.0 1122103.0 5757.0
535617.0 1122340.0 5643.0
533974.0 1127459.0 5769.0
533907.0 1127656.0 5684.0
533740.0 1127775.0 5642.0
538946.0 1131062.0 5727.0
534758.0 1129153.0 5790.0
539231.0 1131865.0 5686.0
537871.0 1131921.0 5743.0
537228.0 1131778.0 5693.0
530347.0 1127953.0 5785.0
530746.0 1128217.0 5746.0
535595.0 1131110.0 5720.0
534854.0 1131253.0 5830.0
538370.0 1133345.0 5737.0
534442.0 1131338.0 5763.0
534172.0 1131469.0 5691.0
529578.0 1129194.0 5825.0
532557.0 1131454.0 5687.0
532917.0 1131865.0 5773.0
531492.0 1131254.0 5790.0
533528.0 1132396.0 5757.0
531461.0 1131345.0 5729.0
531843.0 1131602.0 5765.0
533419.0 1132492.0 5707.0
531552.0 1131624.0 5668.0
537705.0 1135958.0 5764.0
532715.0 1134144.0 5697.0
532917.0 1134529.0 5812.0
532828.0 1134726.0 5793.0
531594.0 1134907.0 5678.0
538335.0 1133329.0 5747.0
537582.0 1136037.0 5645.0
537561.0 1132592.0 5742.0
537639.0 1131575.0 5682.0
537316.0 1132418.0 5740.0
534995.0 1131145.0 5828.0
535861.0 1121778.0 5661.0
536065.0 1120406.0 5727.0
534672.0 1131258.0 5786.0
534813.0 1129149.0 5744.0
535344.0 1120735.0 5825.0
535173.0 1120724.0 5802.0
534039.0 1127526.0 5767.0
533862.0 1127434.0 5800.0
534559.0 1120606.0 5819.0
532935.0 1135393.0 5835.0
533639.0 1127643.0 5665.0
534281.0 1121220.0 5759.0
532858.0 1134607.0 5783.0
532843.0 1134093.0 5786.0
534172.0 1120316.0 5790.0
532670.0 1134147.0 5712.0
532664.0 1133589.0 5692.0
533873.0 1120784.0 5677.0
533691.0 1120792.0 5834.0
531496.0 1135020.0 5771.0
531497.0 1131666.0 5682.0
531524.0 1131107.0 5749.0
531394.0 1131068.0 5812.0
531569.0 1128774.0 5725.0
531447.0 1128493.0 5761.0
531062.0 1128631.0 5719.0
529361.0 1132834.0 5708.0
529559.0 1129517.0 5751.0
529171.0 1132687.0 5732.0
528442.0 1134129.0 5827.0
531662.0 1135263.0 5789.0
531609.0 1135016.0 5701.0
533010.0 1135270.0 5802.0
529443.0 1132992.0 5794.0
532703.0 1134417.0 5666.0
532785.0 1134166.0 5733.0
527568.0 1131295.0 5691.0
532710.0 1133810.0 5708.0
537629.0 1136143.0 5759.0
532851.0 1133230.0 5813.0
532895.0 1132905.0 5781.0
531616.0 1131951.0 5700.0
531189.0 1131209.0 5828.0
529547.0 1129536.0 5718.0
529371.0 1129221.0 5751.0
538413.0 1133376.0 5805.0
534590.0 1131422.0 5767.0
538473.0 1133308.0 5663.0
538126.0 1133033.0 5741.0
534561.0 1131225.0 5731.0
534760.0 1131122.0 5706.0
535112.0 1131052.0 5821.0
531625.0 1128971.0 5712.0
539101.0 1132392.0 5667.0
530831.0 1128031.0 5706.0
530457.0 1127745.0 5732.0
531671.0 1128276.0 5711.0
530445.0 1127618.0 5653.0
533844.0 1127583.0 5668.0
535265.0 1122690.0 5782.0
535268.0 1122450.0 5671.0
535733.0 1122346.0 5720.0
533922.0 1120876.0 5833.0
533538.0 1120680.0 5771.0
536124.0 1121830.0 5790.0
535344.0 1121440.0 5710.0
536329.0 1121697.0 5752.0
535142.0 1120881.0 5670.0
535477.0 1120774.0 5820.0
529338.0 1132412.0 5518.0
531042.0 1128399.0 5450.0
531124.0 1128930.0 5471.0
531534.0 1129149.0 5451.0
531769.0 1134828.0 5611.0
532141.0 1134523.0 5632.0
533790.0 1128000.0 5523.0
534264.0 1120686.0 5567.0
533985.0 1127988.0 5622.0
533799.0 1131812.0 5555.0
534123.0 1131363.0 5623.0
534706.0 1129356.0 5629.0
535104.0 1122647.0 5578.0
535240.0 1122237.0 5622.0
535389.0 1121453.0 5508.0
535703.0 1121467.0 5554.0
535922.0 1121431.0 5560.0
536710.0 1121260.0 5492.0
536461.0 1136322.0 5524.0
536732.0 1135893.0 5590.0
537514.0 1131923.0 5519.0
537786.0 1132098.0 5508.0
537587.0 1136049.0 5613.0
538093.0 1131594.0 5634.0
538754.0 1131228.0 5508.0
538926.0 1131252.0 5623.0
536910.0 1120650.0 5625.0
536026.0 1120227.0 5462.0
536884.0 1120811.0 5475.0
536369.0 1120726.0 5602.0
534383.0 1120701.0 5469.0
534798.0 1120994.0 5586.0
535729.0 1121475.0 5449.0
534060.0 1120725.0 5473.0
533470.0 1120717.0 5602.0
535281.0 1122337.0 5597.0
535300.0 1122428.0 5443.0
534891.0 1122434.0 5592.0
538897.0 1131042.0 5575.0
533766.0 1128028.0 5474.0
534519.0 1128686.0 5448.0
538696.0 1131180.0 5451.0
534662.0 1129300.0 5602.0
539036.0 1131957.0 5589.0
539003.0 1132192.0 5453.0
537553.0 1131654.0 5530.0
531591.0 1128324.0 5550.0
537658.0 1131974.0 5498.0
530811.0 1128371.0 5538.0
531058.0 1128841.0 5465.0
533241.0 1130588.0 5626.0
532560.0 1131571.0 5463.0
532751.0 1131827.0 5446.0
532313.0 1131744.0 5439.0
527946.0 1131125.0 5543.0
536305.0 1136006.0 5583.0
529306.0 1132338.0 5474.0
532081.0 1134141.0 5440.0
528497.0 1133633.0 5487.0
539265.0 1132064.0 5527.0
539146.0 1131955.0 5547.0
538728.0 1131144.0 5464.0
538143.0 1133157.0 5608.0
537369.0 1136013.0 5575.0
536884.0 1135775.0 5495.0
536911.0 1120630.0 5627.0
536226.0 1120931.0 5502.0
535902.0 1121315.0 5551.0
535467.0 1122272.0 5459.0
534586.0 1129339.0 5535.0
535239.0 1122299.0 5485.0
535074.0 1122209.0 5548.0
534008.0 1131334.0 5594.0
534937.0 1122204.0 5607.0
534846.0 1120840.0 5575.0
534432.0 1121082.0 5562.0
534040.0 1121174.0 5589.0
534032.0 1120733.0 5479.0
532685.0 1133043.0 5509.0
532491.0 1131727.0 5452.0
531826.0 1134797.0 5536.0
531661.0 1134898.0 5604.0
531654.0 1131966.0 5556.0
531617.0 1128948.0 5482.0
531526.0 1128236.0 5621.0
528471.0 1133862.0 5603.0
526967.0 1133337.0 5462.0
526654.0 1134549.0 5455.0
528695.0 1134165.0 5462.0
528607.0 1133939.0 5511.0
529511.0 1132883.0 5570.0
536355.0 1136141.0 5447.0
536927.0 1136144.0 5608.0
532618.0 1133493.0 5617.0
537525.0 1135942.0 5518.0
531671.0 1131845.0 5471.0
532776.0 1132128.0 5614.0
531529.0 1131498.0 5493.0
534212.0 1131282.0 5624.0
538186.0 1132984.0 5558.0
537439.0 1132585.0 5470.0
538296.0 1132896.0 5438.0
537785.0 1132099.0 5504.0
537853.0 1131842.0 5538.0
537524.0 1131659.0 5524.0
539211.0 1132284.0 5515.0
539111.0 1131950.0 5515.0
538582.0 1131421.0 5454.0
539001.0 1131300.0 5562.0
539044.0 1131106.0 5511.0
531762.0 1127181.0 5615.0
533853.0 1128090.0 5492.0
531777.0 1126976.0 5444.0
533836.0 1127740.0 5588.0
535352.0 1122252.0 5592.0
534927.0 1122047.0 5496.0
535174.0 1121659.0 5595.0
534735.0 1121421.0 5631.0
534547.0 1121104.0 5568.0
533791.0 1120667.0 5611.0
535952.0 1121349.0 5557.0
535506.0 1121194.0 5490.0
536559.0 1121253.0 5451.0
536206.0 1121028.0 5541.0
535489.0 1120613.0 5632.0
536159.0 1120758.0 5522.0
527414.0 1130972.0 5318.0
527263.0 1133576.0 5250.0
529986.0 1132844.0 5422.0
530590.0 1132813.0 5374.0
531073.0 1129004.0 5357.0
530823.0 1132573.0 5332.0
531204.0 1129471.0 5249.0
531303.0 1129563.0 5288.0
531527.0 1128254.0 5329.0
531578.0 1129697.0 5303.0
531953.0 1134302.0 5321.0
532365.0 1133475.0 5298.0
532588.0 1133201.0 5338.0
533122.0 1129873.0 5273.0
533303.0 1129464.0 5398.0
533268.0 1129994.0 5262.0
533244.0 1130511.0 5433.0
533206.0 1131078.0 5251.0
533474.0 1129560.0 5392.0
533663.0 1131692.0 5372.0
534562.0 1128977.0 5369.0
534556.0 1129580.0 5390.0
535721.0 1120251.0 5271.0
535649.0 1121547.0 5264.0
535842.0 1120130.0 5383.0
535672.0 1123341.0 5422.0
535992.0 1120223.0 5436.0
536205.0 1120438.0 5260.0
536975.0 1120636.0 5351.0
537079.0 1135819.0 5350.0
537562.0 1132552.0 5311.0
537398.0 1135665.0 5313.0
538134.0 1132814.0 5323.0
538529.0 1130845.0 5321.0
538474.0 1132115.0 5365.0
538801.0 1132335.0 5256.0
535838.0 1119515.0 5304.0
536801.0 1120938.0 5338.0
535524.0 1120425.0 5422.0
536374.0 1120837.0 5299.0
534889.0 1121251.0 5430.0
533920.0 1120797.0 5260.0
534847.0 1121675.0 5266.0
535362.0 1122624.0 5370.0
535744.0 1123141.0 5349.0
538546.0 1130745.0 5347.0
538619.0 1130972.0 5426.0
533694.0 1128102.0 5350.0
534422.0 1128748.0 5301.0
538110.0 1131072.0 5391.0
534492.0 1129422.0 5375.0
538608.0 1131918.0 5338.0
538761.0 1132265.0 5287.0
538151.0 1132189.0 5331.0
531273.0 1128331.0 5319.0
533286.0 1129525.0 5361.0
537762.0 1132246.0 5419.0
538068.0 1132661.0 5238.0
533201.0 1130044.0 5257.0
537991.0 1132968.0 5371.0
531573.0 1129507.0 5429.0
531457.0 1129722.0 5267.0
537051.0 1133350.0 5243.0
533415.0 1131947.0 5254.0
531445.0 1132048.0 5245.0
530746.0 1132398.0 5402.0
530743.0 1132575.0 5306.0
532334.0 1133537.0 5318.0
527287.0 1130866.0 5302.0
527718.0 1131103.0 5398.0
530232.0 1132637.0 5396.0
530159.0 1132731.0 5403.0
532174.0 1133925.0 5406.0
529689.0 1132760.0 5416.0
527452.0 1133354.0 5342.0
527059.0 1133460.0 5396.0
538842.0 1132039.0 5355.0
538418.0 1131353.0 5348.0
538490.0 1130863.0 5381.0
538039.0 1132605.0 5293.0
537754.0 1132687.0 5304.0
537829.0 1131044.0 5403.0
537074.0 1135848.0 5402.0
536265.0 1136004.0 5404.0
535508.0 1121785.0 5355.0
535473.0 1119754.0 5307.0
534838.0 1121713.0 5245.0
533652.0 1131727.0 5309.0
534556.0 1121086.0 5341.0
533696.0 1127945.0 5424.0
534366.0 1120586.0 5327.0
534170.0 1120706.0 5384.0
532867.0 1132590.0 5424.0
532380.0 1133410.0 5351.0
531988.0 1134402.0 5400.0
532092.0 1133945.0 5405.0
531888.0 1134317.0 5389.0
531568.0 1129469.0 5347.0
531743.0 1126810.0 5240.0
531360.0 1129331.0 5402.0
530795.0 1132484.0 5246.0
530608.0 1132486.0 5375.0
530930.0 1129154.0 5390.0
530390.0 1132558.0 5402.0
530199.0 1132626.0 5413.0
529210.0 1132280.0 5332.0
528709.0 1133998.0 5387.0
528585.0 1133823.0 5434.0
528227.0 1133681.0 5419.0
528195.0 1133234.0 5269.0
527528.0 1131106.0 5405.0
527349.0 1131034.0 5393.0
526818.0 1134455.0 5332.0
526637.0 1133784.0 5323.0
526805.0 1134472.0 5330.0
526772.0 1134315.0 5285.0
528292.0 1134012.0 5313.0
531707.0 1134682.0 5426.0
531841.0 1134538.0 5332.0
531835.0 1134294.0 5346.0
531878.0 1134116.0 5277.0
529732.0 1132853.0 5353.0
529948.0 1132729.0 5338.0
536511.0 1135998.0 5433.0
530296.0 1132598.0 5410.0
536726.0 1135831.0 5349.0
537092.0 1135780.0 5305.0
532885.0 1132539.0 5386.0
533083.0 1132433.0 5295.0
533223.0 1132242.0 5400.0
533583.0 1131948.0 5316.0
533738.0 1131703.0 5385.0
531212.0 1129809.0 5274.0
531282.0 1129638.0 5285.0
531554.0 1129483.0 5360.0
531200.0 1129354.0 5325.0
537903.0 1132688.0 5426.0
537519.0 1132515.0 5429.0
532495.0 1129856.0 5286.0
531280.0 1129226.0 5243.0
538212.0 1132669.0 5371.0
531228.0 1128330.0 5384.0
538758.0 1132192.0 5245.0
538652.0 1131874.0 5244.0
534421.0 1129598.0 5313.0
534392.0 1129330.0 5308.0
538556.0 1131171.0 5389.0
538671.0 1130942.0 5420.0
534403.0 1128744.0 5267.0
535615.0 1123355.0 5425.0
536052.0 1122685.0 5333.0
534545.0 1121833.0 5394.0
534837.0 1121863.0 5248.0
535605.0 1121784.0 5267.0
534134.0 1121005.0 5244.0
536866.0 1120905.0 5339.0
535952.0 1120213.0 5289.0
526452.0 1135153.0 5085.0
527317.0 1130860.0 5184.0
527092.0 1133762.0 5075.0
526988.0 1134319.0 5109.0
527988.0 1131332.0 5087.0
528715.0 1131620.0 5070.0
530151.0 1132298.0 5054.0
531198.0 1127196.0 5196.0
531070.0 1129622.0 5186.0
531324.0 1128390.0 5207.0
531208.0 1130009.0 5155.0
531455.0 1128395.0 5119.0
531323.0 1130172.0 5131.0
531159.0 1132464.0 5192.0
531460.0 1129398.0 5233.0
531439.0 1129981.0 5234.0
531323.0 1132397.0 5154.0
531583.0 1130833.0 5073.0
532114.0 1127049.0 5051.0
532240.0 1128800.0 5100.0
532702.0 1127955.0 5075.0
533010.0 1126680.0 5139.0
532856.0 1130871.0 5177.0
533475.0 1121808.0 5175.0
533162.0 1131099.0 5076.0
533460.0 1128331.0 5039.0
533218.0 1132124.0 5109.0
533483.0 1130772.0 5138.0
533498.0 1131369.0 5062.0
533426.0 1131957.0 5202.0
534644.0 1120988.0 5172.0
535136.0 1121442.0 5151.0
535338.0 1121479.0 5078.0
535805.0 1119624.0 5049.0
535914.0 1119482.0 5060.0
536153.0 1120776.0 5046.0
535975.0 1122564.0 5228.0
536497.0 1120939.0 5064.0
536668.0 1121020.0 5158.0
536395.0 1136026.0 5144.0
537159.0 1135248.0 5134.0
537613.0 1133194.0 5081.0
537868.0 1132665.0 5236.0
538259.0 1130984.0 5224.0
535782.0 1119651.0 5065.0
535725.0 1119847.0 5065.0
536022.0 1120361.0 5064.0
536765.0 1121040.0 5118.0
535767.0 1120654.0 5195.0
536556.0 1121199.0 5222.0
535383.0 1121435.0 5102.0
535770.0 1121714.0 5236.0
534740.0 1121317.0 5199.0
534991.0 1121897.0 5137.0
532524.0 1126844.0 5203.0
538332.0 1130883.0 5228.0
533591.0 1128199.0 5198.0
533459.0 1128329.0 5048.0
538218.0 1131277.0 5186.0
538581.0 1132393.0 5195.0
531677.0 1128479.0 5132.0
531245.0 1128460.0 5068.0
533229.0 1129723.0 5169.0
537585.0 1132648.0 5189.0
537500.0 1132897.0 5075.0
531078.0 1129465.0 5218.0
531025.0 1129741.0 5187.0
531409.0 1130006.0 5209.0
533537.0 1131529.0 5159.0
533453.0 1131725.0 5132.0
532760.0 1131946.0 5214.0
533151.0 1132135.0 5176.0
532516.0 1131993.0 5114.0
532029.0 1131973.0 5144.0
531835.0 1132159.0 5038.0
537410.0 1135532.0 5192.0
531453.0 1132341.0 5090.0
531177.0 1132501.0 5069.0
532412.0 1133277.0 5237.0
528155.0 1131315.0 5153.0
528577.0 1131478.0 5060.0
527387.0 1131032.0 5156.0
527780.0 1131269.0 5060.0
528175.0 1133365.0 5207.0
527516.0 1133613.0 5084.0
526166.0 1133196.0 5199.0
526954.0 1133625.0 5213.0
526317.0 1133449.0 5112.0
526735.0 1133663.0 5059.0
526126.0 1133463.0 5126.0
526261.0 1133635.0 5041.0
526951.0 1134234.0 5077.0
538519.0 1132194.0 5180.0
538213.0 1132300.0 5045.0
538013.0 1132096.0 5087.0
538134.0 1131070.0 5077.0
537068.0 1134773.0 5120.0
536987.0 1133484.0 5117.0
536525.0 1132303.0 5157.0
535578.0 1135630.0 5075.0
536916.0 1120960.0 5159.0
536136.0 1120397.0 5078.0
535546.0 1123218.0 5147.0
534595.0 1129594.0 5192.0
535607.0 1119780.0 5072.0
534348.0 1129883.0 5161.0
535348.0 1120244.0 5074.0
535047.0 1121245.0 5223.0
535188.0 1120302.0 5113.0
533325.0 1132000.0 5113.0
533450.0 1131070.0 5055.0
533330.0 1131214.0 5128.0
532996.0 1132054.0 5140.0
533018.0 1131503.0 5052.0
532581.0 1129479.0 5188.0
531838.0 1130383.0 5061.0
531553.0 1131424.0 5133.0
531415.0 1130011.0 5111.0
531547.0 1128412.0 5106.0
531270.0 1129897.0 5219.0
527506.0 1133480.0 5047.0
527697.0 1131173.0 5156.0
527027.0 1133827.0 5090.0
526831.0 1133918.0 5207.0
526255.0 1133621.0 5073.0
526404.0 1135105.0 5141.0
526901.0 1134188.0 5216.0
526985.0 1134049.0 5148.0
526188.0 1133618.0 5074.0
528287.0 1134466.0 5148.0
527044.0 1133848.0 5085.0
526231.0 1133380.0 5074.0
527097.0 1133686.0 5042.0
527090.0 1133414.0 5237.0
527859.0 1131692.0 5044.0
535723.0 1135679.0 5053.0
527531.0 1131149.0 5097.0
537448.0 1135766.0 5170.0
537036.0 1135602.0 5067.0
531165.0 1132362.0 5190.0
537407.0 1135607.0 5077.0
532286.0 1132046.0 5084.0
531863.0 1131812.0 5228.0
531379.0 1130281.0 5045.0
537242.0 1132823.0 5103.0
536594.0 1132349.0 5109.0
532677.0 1130211.0 5156.0
537418.0 1132353.0 5074.0
538485.0 1132628.0 5114.0
538121.0 1132391.0 5222.0
538627.0 1132409.0 5139.0
538224.0 1132204.0 5131.0
538385.0 1132000.0 5173.0
534409.0 1129876.0 5153.0
537916.0 1131474.0 5164.0
538053.0 1131367.0 5068.0
538230.0 1130862.0 5132.0
533640.0 1128333.0 5153.0
535568.0 1123168.0 5058.0
535191.0 1122086.0 5073.0
535097.0 1121314.0 5151.0
534697.0 1121139.0 5068.0
535042.0 1121085.0 5062.0
534226.0 1120664.0 5053.0
536558.0 1121082.0 5175.0
536314.0 1120456.0 5148.0
526642.0 1133623.0 5010.0
526857.0 1134007.0 5006.0
527352.0 1134089.0 4848.0
527799.0 1131381.0 4927.0
527942.0 1133694.0 4848.0
528487.0 1131521.0 4973.0
531316.0 1130548.0 4921.0
531398.0 1130744.0 4971.0
531448.0 1130602.0 4995.0
532488.0 1127039.0 4853.0
532416.0 1128245.0 4851.0
532821.0 1126822.0 4904.0
532722.0 1128505.0 4903.0
533052.0 1128500.0 4866.0
532978.0 1130290.0 4891.0
532818.0 1132650.0 4965.0
533311.0 1128022.0 4949.0
533317.0 1128644.0 4858.0
533146.0 1130501.0 4957.0
533846.0 1131080.0 4867.0
534174.0 1130275.0 4877.0
534398.0 1130151.0 4990.0
535275.0 1121947.0 4845.0
535475.0 1121577.0 5032.0
535668.0 1120316.0 4981.0
536006.0 1120760.0 4842.0
536367.0 1121043.0 4866.0
536339.0 1122324.0 4853.0
536302.0 1134613.0 4956.0
537140.0 1132577.0 4902.0
537363.0 1132821.0 4898.0
537722.0 1131296.0 4865.0
538634.0 1132742.0 4932.0
538885.0 1132905.0 4946.0
537038.0 1120451.0 4928.0
535658.0 1120062.0 5021.0
536158.0 1122395.0 4879.0
534601.0 1121613.0 4949.0
535586.0 1123126.0 4871.0
532580.0 1126257.0 4851.0
532972.0 1126514.0 4938.0
532788.0 1126606.0 4843.0
532189.0 1126553.0 4966.0
532136.0 1126708.0 5013.0
532547.0 1126916.0 4964.0
531779.0 1126837.0 4987.0
532190.0 1127017.0 4901.0
532603.0 1127256.0 4864.0
532863.0 1127720.0 5031.0
532587.0 1127816.0 5025.0
537877.0 1131032.0 5016.0
532512.0 1128020.0 4917.0
533331.0 1128511.0 4889.0
537854.0 1131233.0 4930.0
532795.0 1128486.0 4893.0
533220.0 1128715.0 4844.0
537657.0 1131427.0 4920.0
532199.0 1128401.0 4842.0
532600.0 1128635.0 4855.0
538271.0 1132404.0 5030.0
538653.0 1132618.0 4989.0
534455.0 1130340.0 4934.0
537675.0 1132312.0 5008.0
538560.0 1132785.0 4908.0
538934.0 1133108.0 5003.0
534152.0 1130433.0 4838.0
532589.0 1129874.0 4846.0
533098.0 1130542.0 4900.0
537578.0 1133251.0 4996.0
531989.0 1130502.0 4868.0
531477.0 1130518.0 4935.0
531407.0 1130624.0 4956.0
533247.0 1131920.0 4919.0
537370.0 1134459.0 5028.0
537242.0 1134470.0 4863.0
536181.0 1134393.0 4988.0
537068.0 1135239.0 4917.0
530023.0 1132079.0 4915.0
528192.0 1131466.0 4928.0
527413.0 1131229.0 4867.0
527814.0 1131463.0 4888.0
527954.0 1133392.0 4987.0
528335.0 1133654.0 4884.0
526582.0 1133382.0 5014.0
527401.0 1133784.0 4953.0
527149.0 1133868.0 4999.0
526565.0 1133653.0 4992.0
526995.0 1133877.0 4911.0
526697.0 1133835.0 4922.0
527089.0 1134060.0 4962.0
526538.0 1135207.0 4992.0
538997.0 1133109.0 4934.0
538608.0 1132574.0 4852.0
537394.0 1135488.0 4966.0
537557.0 1133773.0 4839.0
537659.0 1132164.0 4927.0
537853.0 1131153.0 4961.0
537164.0 1135482.0 4938.0
537397.0 1131013.0 4844.0
536729.0 1135193.0 5010.0
536987.0 1132452.0 4917.0
535716.0 1135555.0 4889.0
536654.0 1121043.0 4996.0
535849.0 1122497.0 4983.0
534467.0 1130154.0 4917.0
535371.0 1121288.0 4924.0
535512.0 1120204.0 4999.0
535187.0 1121281.0 4979.0
533983.0 1130576.0 4876.0
533799.0 1130727.0 4923.0
533572.0 1131154.0 4917.0
533655.0 1130582.0 5005.0
534532.0 1121828.0 5007.0
533328.0 1131518.0 4905.0
533315.0 1128193.0 5001.0
532521.0 1133555.0 4939.0
533000.0 1128572.0 4841.0
532689.0 1129771.0 4964.0
532628.0 1128366.0 4894.0
532677.0 1127832.0 4926.0
532107.0 1131880.0 5019.0
532214.0 1130346.0 4955.0
532449.0 1127841.0 4850.0
532532.0 1126781.0 5030.0
531853.0 1131564.0 4903.0
532010.0 1130407.0 4955.0
532400.0 1126648.0 5035.0
531689.0 1131496.0 4875.0
531503.0 1130906.0 4899.0
531892.0 1126897.0 5027.0
531362.0 1130543.0 5018.0
529814.0 1129088.0 4861.0
528225.0 1134383.0 4967.0
527915.0 1131249.0 5022.0
527405.0 1134029.0 4843.0
527206.0 1134167.0 4997.0
527243.0 1133639.0 5029.0
526654.0 1135055.0 4865.0
526404.0 1135350.0 5024.0
527397.0 1134131.0 4870.0
526614.0 1133664.0 5007.0
526624.0 1133481.0 4895.0
527418.0 1133642.0 4978.0
529012.0 1134111.0 5018.0
528856.0 1132537.0 4879.0
529072.0 1132460.0 4958.0
527902.0 1131413.0 5014.0
527886.0 1131144.0 5019.0
532396.0 1131966.0 4973.0
532005.0 1131751.0 4871.0
531598.0 1131546.0 4845.0
531487.0 1131208.0 4901.0
531505.0 1130984.0 4913.0
531307.0 1130532.0 5005.0
533268.0 1131374.0 4875.0
531723.0 1130472.0 5004.0
533663.0 1131279.0 4913.0
533231.0 1131058.0 4881.0
529892.0 1129195.0 4984.0
537549.0 1133132.0 4945.0
536813.0 1132726.0 4897.0
533620.0 1131053.0 4908.0
533446.0 1130762.0 4875.0
536582.0 1132227.0 4887.0
533716.0 1130655.0 4965.0
538970.0 1133192.0 4976.0
538819.0 1132904.0 4894.0
531825.0 1129154.0 5021.0
534445.0 1130302.0 4842.0
537716.0 1131193.0 5028.0
538033.0 1131117.0 4920.0
532576.0 1128217.0 4881.0
533198.0 1128235.0 4941.0
532840.0 1128014.0 4942.0
532449.0 1127837.0 4847.0
533402.0 1128044.0 4922.0
532109.0 1127366.0 4890.0
531785.0 1126751.0 4884.0
532543.0 1126732.0 4883.0
534035.0 1122659.0 5031.0
534011.0 1122052.0 5024.0
535470.0 1122050.0 4981.0
535057.0 1121810.0 5007.0
535410.0 1121562.0 5000.0
534302.0 1121007.0 4895.0
534992.0 1120870.0 4995.0
534199.0 1120486.0 5015.0
536402.0 1120884.0 4870.0
535267.0 1120213.0 4964.0
535492.0 1120110.0 4899.0
535596.0 1119884.0 4997.0
526883.0 1135169.0 4733.0
528402.0 1127193.0 4665.0
528038.0 1131870.0 4835.0
528504.0 1128525.0 4753.0
528312.0 1131706.0 4822.0
528294.0 1132215.0 4678.0
528141.0 1133793.0 4780.0
528630.0 1132521.0 4751.0
528626.0 1133744.0 4756.0
528720.0 1133768.0 4761.0
528713.0 1134255.0 4790.0
528879.0 1133780.0 4743.0
530201.0 1128383.0 4742.0
530175.0 1128994.0 4651.0
530460.0 1129288.0 4758.0
531825.0 1126373.0 4662.0
531974.0 1126438.0 4737.0
531948.0 1127022.0 4745.0
531866.0 1128659.0 4759.0
532235.0 1126492.0 4762.0
532135.0 1128853.0 4698.0
532582.0 1125768.0 4723.0
532532.0 1126392.0 4788.0
532470.0 1127644.0 4772.0
532868.0 1126260.0 4836.0
532818.0 1127390.0 4828.0
532804.0 1129091.0 4679.0
532543.0 1134012.0 4728.0
533061.0 1129097.0 4754.0
533021.0 1129704.0 4712.0
533193.0 1131697.0 4692.0
533600.0 1127779.0 4721.0
533744.0 1127799.0 4821.0
534572.0 1121248.0 4643.0
534389.0 1126331.0 4703.0
534185.0 1130743.0 4714.0
534793.0 1133208.0 4679.0
535482.0 1120179.0 4692.0
535448.0 1122043.0 4695.0
535476.0 1123315.0 4646.0
535591.0 1120318.0 4729.0
535715.0 1119753.0 4784.0
535659.0 1123165.0 4660.0
535847.0 1122140.0 4770.0
535972.0 1122708.0 4688.0
536713.0 1136388.0 4733.0
537012.0 1135335.0 4824.0
537000.0 1136475.0 4685.0
536975.0 1136971.0 4819.0
537524.0 1131008.0 4734.0
537511.0 1131606.0 4721.0
537431.0 1132213.0 4821.0
537345.0 1134615.0 4736.0
537708.0 1133853.0 4717.0
537672.0 1135067.0 4694.0
537922.0 1134982.0 4745.0
538262.0 1135264.0 4756.0
538578.0 1135257.0 4719.0
535337.0 1119759.0 4741.0
535302.0 1119932.0 4672.0
535422.0 1120283.0 4793.0
536205.0 1120869.0 4824.0
536389.0 1121106.0 4818.0
533822.0 1120283.0 4668.0
534446.0 1120903.0 4684.0
535673.0 1121679.0 4700.0
535862.0 1122345.0 4801.0
534199.0 1121698.0 4692.0
534229.0 1121904.0 4696.0
534337.0 1126287.0 4672.0
532579.0 1125579.0 4713.0
532473.0 1125804.0 4725.0
532186.0 1125945.0 4734.0
531950.0 1126123.0 4786.0
531838.0 1126281.0 4793.0
533875.0 1127446.0 4727.0
531789.0 1126341.0 4679.0
533795.0 1127528.0 4685.0
532643.0 1127063.0 4812.0
532087.0 1127140.0 4780.0
532503.0 1127373.0 4775.0
532204.0 1127464.0 4804.0
537538.0 1131032.0 4780.0
533048.0 1128864.0 4767.0
532131.0 1128603.0 4806.0
532959.0 1129052.0 4704.0
537453.0 1131779.0 4751.0
530534.0 1127982.0 4723.0
531701.0 1128628.0 4826.0
532109.0 1128857.0 4671.0
537347.0 1131983.0 4668.0
530255.0 1128118.0 4762.0
530146.0 1128355.0 4725.0
534225.0 1130741.0 4731.0
537172.0 1132544.0 4730.0
533951.0 1130958.0 4794.0
537534.0 1133468.0 4715.0
537708.0 1133862.0 4719.0
534497.0 1132625.0 4694.0
537799.0 1134597.0 4814.0
537645.0 1134680.0 4772.0
538500.0 1135137.0 4682.0
534730.0 1133113.0 4767.0
536975.0 1134444.0 4653.0
537410.0 1134667.0 4656.0
537827.0 1134963.0 4722.0
538263.0 1135193.0 4733.0
532557.0 1132114.0 4660.0
537853.0 1135214.0 4740.0
529531.0 1130695.0 4714.0
532789.0 1132964.0 4685.0
535292.0 1134978.0 4683.0
529917.0 1132068.0 4708.0
532508.0 1133621.0 4771.0
536777.0 1136368.0 4749.0
528248.0 1131681.0 4794.0
536687.0 1136516.0 4665.0
528072.0 1131889.0 4780.0
528480.0 1132116.0 4784.0
529006.0 1133680.0 4699.0
528722.0 1133821.0 4746.0
527963.0 1133743.0 4822.0
527623.0 1134007.0 4667.0
527446.0 1134043.0 4770.0
538241.0 1135180.0 4653.0
537806.0 1135252.0 4770.0
537643.0 1133698.0 4654.0
537656.0 1131639.0 4820.0
537399.0 1131974.0 4690.0
537567.0 1131503.0 4826.0
536879.0 1135285.0 4706.0
536431.0 1137366.0 4712.0
536487.0 1136870.0 4806.0
536873.0 1132925.0 4716.0
535797.0 1135775.0 4682.0
535937.0 1134731.0 4684.0
537027.0 1120320.0 4697.0
535111.0 1134990.0 4681.0
536091.0 1122193.0 4660.0
536307.0 1121096.0 4745.0
534329.0 1130691.0 4675.0
535331.0 1120719.0 4665.0
534085.0 1130955.0 4693.0
534180.0 1130406.0 4803.0
535181.0 1120761.0 4763.0
533893.0 1131064.0 4775.0
534906.0 1119668.0 4640.0
533786.0 1127806.0 4789.0
534235.0 1121590.0 4641.0
533070.0 1131674.0 4756.0
534072.0 1121616.0 4679.0
532731.0 1133164.0 4651.0
532809.0 1132612.0 4639.0
533135.0 1128767.0 4745.0
532484.0 1134065.0 4685.0
532849.0 1129531.0 4725.0
532906.0 1129047.0 4695.0
532594.0 1130324.0 4761.0
532727.0 1129237.0 4773.0
532773.0 1128689.0 4831.0
533674.0 1120273.0 4830.0
532611.0 1127243.0 4660.0
532691.0 1126695.0 4734.0
532754.0 1126150.0 4730.0
533271.0 1121802.0 4825.0
533336.0 1120783.0 4707.0
532395.0 1127314.0 4731.0
532544.0 1126320.0 4799.0
532550.0 1125816.0 4701.0
532232.0 1127705.0 4805.0
532237.0 1127150.0 4773.0
531752.0 1129826.0 4757.0
532028.0 1127071.0 4804.0
532099.0 1125946.0 4655.0
531651.0 1126253.0 4649.0
530307.0 1127952.0 4708.0
530006.0 1129007.0 4695.0
529014.0 1134542.0 4643.0
529080.0 1134076.0 4695.0
528525.0 1133457.0 4794.0
528628.0 1132409.0 4709.0
528470.0 1132096.0 4726.0
528499.0 1131550.0 4759.0
528306.0 1132120.0 4835.0
528318.0 1131566.0 4745.0
527910.0 1134187.0 4718.0
528028.0 1132685.0 4659.0
528140.0 1131590.0 4809.0
527642.0 1134053.0 4719.0
526836.0 1134974.0 4746.0
527778.0 1134384.0 4681.0
527863.0 1134197.0 4727.0
527464.0 1133979.0 4827.0
527790.0 1134015.0 4640.0
528150.0 1133744.0 4697.0
529038.0 1134002.0 4742.0
528276.0 1133549.0 4792.0
528578.0 1133490.0 4711.0
528598.0 1133251.0 4746.0
528190.0 1133032.0 4640.0
536427.0 1137028.0 4800.0
536099.0 1136786.0 4785.0
536312.0 1136767.0 4757.0
528219.0 1131692.0 4829.0
535763.0 1135600.0 4671.0
535388.0 1135343.0 4671.0
528289.0 1131455.0 4743.0
532644.0 1133599.0 4756.0
536922.0 1135424.0 4798.0
536975.0 1135278.0 4646.0
538018.0 1135298.0 4782.0
537602.0 1135112.0 4705.0
538232.0 1135222.0 4681.0
537813.0 1135009.0 4641.0
536658.0 1134415.0 4667.0
531788.0 1131513.0 4806.0
533158.0 1131688.0 4727.0
537568.0 1133753.0 4697.0
537238.0 1133493.0 4826.0
533598.0 1131635.0 4660.0
531962.0 1130431.0 4790.0
530024.0 1129150.0 4806.0
536933.0 1132655.0 4731.0
536120.0 1132220.0 4714.0
533834.0 1131001.0 4810.0
531832.0 1129943.0 4728.0
536970.0 1132454.0 4803.0
536144.0 1132093.0 4652.0
534087.0 1130953.0 4720.0
532789.0 1130285.0 4681.0
534186.0 1130753.0 4732.0
534159.0 1130490.0 4783.0
532766.0 1129497.0 4658.0
530666.0 1128299.0 4713.0
537505.0 1131734.0 4690.0
532367.0 1128875.0 4833.0
532761.0 1128896.0 4831.0
533063.0 1128839.0 4741.0
532661.0 1128561.0 4836.0
531353.0 1127962.0 4648.0
530992.0 1127687.0 4795.0
530910.0 1127416.0 4770.0
532479.0 1127650.0 4755.0
532486.0 1127409.0 4719.0
532091.0 1127166.0 4790.0
533669.0 1127808.0 4743.0
532520.0 1127226.0 4702.0
532149.0 1127003.0 4772.0
533649.0 1127646.0 4655.0
532402.0 1126911.0 4803.0
532525.0 1126546.0 4748.0
532501.0 1126239.0 4735.0
532072.0 1126039.0 4650.0
532398.0 1125914.0 4690.0
532631.0 1125743.0 4671.0
533928.0 1122497.0 4666.0
534018.0 1121886.0 4736.0
535908.0 1122599.0 4787.0
534330.0 1121802.0 4733.0
534031.0 1121635.0 4745.0
536197.0 1122581.0 4705.0
534224.0 1121488.0 4794.0
536112.0 1122079.0 4652.0
535389.0 1121390.0 4781.0
535332.0 1121131.0 4759.0
535345.0 1120932.0 4662.0
535245.0 1120600.0 4740.0
536026.0 1120684.0 4731.0
535195.0 1119985.0 4805.0
535739.0 1119826.0 4737.0
527826.0 1129920.0 4471.0
527396.0 1135120.0 4445.0
528405.0 1128388.0 4503.0
527944.0 1134219.0 4539.0
528627.0 1132110.0 4553.0
529111.0 1127195.0 4457.0
529117.0 1127772.0 4441.0
528857.0 1131967.0 4439.0
528617.0 1134276.0 4572.0
529266.0 1127360.0 4441.0
528898.0 1132716.0 4463.0
528749.0 1134814.0 4560.0
529438.0 1127385.0 4489.0
529413.0 1127962.0 4466.0
529397.0 1128521.0 4474.0
528903.0 1134919.0 4594.0
529652.0 1127825.0 4603.0
529304.0 1132561.0 4570.0
529175.0 1134294.0 4594.0
529931.0 1128156.0 4612.0
529958.0 1128713.0 4456.0
531818.0 1128225.0 4454.0
531727.0 1128790.0 4620.0
532221.0 1127678.0 4614.0
532014.0 1132409.0 4499.0
532862.0 1129621.0 4468.0
532506.0 1134528.0 4535.0
534121.0 1121767.0 4550.0
533966.0 1126615.0 4469.0
533899.0 1127216.0 4566.0
534314.0 1121755.0 4576.0
534337.0 1122340.0 4567.0
534227.0 1126157.0 4513.0
534555.0 1121788.0 4603.0
534874.0 1121598.0 4566.0
534694.0 1133295.0 4519.0
535396.0 1120272.0 4605.0
535584.0 1120773.0 4477.0
535831.0 1120886.0 4468.0
535760.0 1122036.0 4602.0
535933.0 1120866.0 4633.0
535387.0 1134953.0 4631.0
535998.0 1122136.0 4609.0
535605.0 1135194.0 4506.0
536152.0 1136697.0 4602.0
536408.0 1135706.0 4595.0
536353.0 1136774.0 4594.0
537088.0 1121288.0 4439.0
536564.0 1136629.0 4600.0
536564.0 1137235.0 4485.0
536991.0 1133319.0 4475.0
536891.0 1134551.0 4535.0
536770.0 1136979.0 4497.0
537270.0 1132016.0 4547.0
537146.0 1134269.0 4554.0
537441.0 1133428.0 4586.0
534947.0 1119656.0 4459.0
536037.0 1120432.0 4621.0
535550.0 1120545.0 4635.0
535398.0 1120617.0 4545.0
536215.0 1121144.0 4622.0
533694.0 1120377.0 4455.0
536025.0 1121898.0 4501.0
534498.0 1121142.0 4438.0
533497.0 1120731.0 4456.0
534263.0 1121488.0 4574.0
535848.0 1122410.0 4460.0
534255.0 1126426.0 4521.0
533884.0 1126822.0 4456.0
531796.0 1128272.0 4493.0
532933.0 1129311.0 4609.0
529472.0 1127550.0 4559.0
529862.0 1127803.0 4622.0
531189.0 1128596.0 4592.0
531637.0 1128798.0 4575.0
532886.0 1129550.0 4502.0
537233.0 1132182.0 4584.0
528507.0 1127332.0 4504.0
529336.0 1127791.0 4471.0
529752.0 1128073.0 4564.0
530577.0 1128529.0 4537.0
532201.0 1129500.0 4625.0
535933.0 1131715.0 4447.0
529978.0 1128528.0 4511.0
536979.0 1133287.0 4476.0
537351.0 1133550.0 4500.0
534495.0 1132695.0 4623.0
534630.0 1133277.0 4557.0
536661.0 1134497.0 4602.0
537467.0 1134925.0 4512.0
536313.0 1134637.0 4594.0
527770.0 1130004.0 4551.0
529474.0 1130951.0 4592.0
532027.0 1132400.0 4486.0
530100.0 1131640.0 4446.0
531273.0 1132320.0 4514.0
529034.0 1131766.0 4478.0
532690.0 1133886.0 4540.0
536468.0 1136067.0 4474.0
528703.0 1131790.0 4520.0
532599.0 1134132.0 4619.0
532444.0 1134293.0 4583.0
536679.0 1136761.0 4508.0
528541.0 1132403.0 4596.0
536669.0 1137054.0 4500.0
528279.0 1132466.0 4439.0
536569.0 1137324.0 4522.0
527930.0 1133904.0 4522.0
528777.0 1134605.0 4574.0
527896.0 1134190.0 4489.0
528742.0 1134684.0 4546.0
527931.0 1134341.0 4538.0
528727.0 1134791.0 4531.0
537800.0 1134796.0 4579.0
537577.0 1134756.0 4567.0
537191.0 1134419.0 4617.0
537245.0 1133419.0 4524.0
537234.0 1132982.0 4538.0
536632.0 1136916.0 4449.0
537054.0 1133096.0 4539.0
537153.0 1132075.0 4485.0
536649.0 1134579.0 4610.0
536256.0 1134890.0 4477.0
535922.0 1136531.0 4629.0
536029.0 1134886.0 4510.0
535397.0 1135057.0 4461.0
535266.0 1135038.0 4560.0
536019.0 1122636.0 4590.0
536250.0 1120121.0 4478.0
535594.0 1123006.0 4447.0
535496.0 1121762.0 4629.0
535728.0 1119839.0 4624.0
535214.0 1121726.0 4591.0
534919.0 1121734.0 4439.0
535199.0 1119701.0 4500.0
534278.0 1126086.0 4458.0
534804.0 1121716.0 4632.0
534995.0 1119784.0 4496.0
533999.0 1126962.0 4495.0
534768.0 1120156.0 4493.0
533818.0 1127300.0 4568.0
533835.0 1126737.0 4468.0
534440.0 1121322.0 4510.0
534052.0 1122567.0 4471.0
532875.0 1132744.0 4520.0
533935.0 1122585.0 4570.0
532493.0 1134785.0 4451.0
532569.0 1134247.0 4500.0
532627.0 1133701.0 4611.0
532903.0 1130912.0 4528.0
533022.0 1129285.0 4518.0
532417.0 1134583.0 4590.0
532774.0 1130035.0 4550.0
533590.0 1122124.0 4588.0
533757.0 1120266.0 4502.0
532881.0 1126572.0 4617.0
533427.0 1121852.0 4618.0
531904.0 1129838.0 4535.0
531817.0 1128696.0 4478.0
531982.0 1126488.0 4591.0
531824.0 1126373.0 4629.0
531290.0 1128962.0 4465.0
531408.0 1127849.0 4527.0
531224.0 1127677.0 4575.0
530364.0 1129129.0 4600.0
530187.0 1128963.0 4611.0
530178.0 1128451.0 4464.0
529955.0 1128450.0 4468.0
529301.0 1134137.0 4536.0
529708.0 1128485.0 4469.0
529093.0 1132520.0 4439.0
528810.0 1134431.0 4575.0
529220.0 1128383.0 4444.0
528649.0 1133781.0 4595.0
528701.0 1132068.0 4484.0
528591.0 1131910.0 4551.0
528255.0 1134316.0 4554.0
528780.0 1127091.0 4470.0
528092.0 1133870.0 4466.0
527878.0 1130092.0 4559.0
527175.0 1135144.0 4479.0
527325.0 1135280.0 4546.0
526949.0 1135065.0 4633.0
527115.0 1135043.0 4492.0
528945.0 1134676.0 4616.0
528871.0 1134446.0 4569.0
528070.0 1133976.0 4584.0
527725.0 1133817.0 4562.0
536544.0 1137358.0 4588.0
528103.0 1132745.0 4507.0
536779.0 1137318.0 4504.0
528122.0 1132619.0 4443.0
536715.0 1137072.0 4455.0
535914.0 1136554.0 4551.0
532507.0 1134777.0 4456.0
536523.0 1136714.0 4447.0
532566.0 1134545.0 4474.0
528599.0 1132317.0 4564.0
532532.0 1134203.0 4562.0
528590.0 1132036.0 4547.0
536948.0 1136365.0 4453.0
528659.0 1131771.0 4493.0
535382.0 1135149.0 4504.0
529768.0 1132154.0 4541.0
535400.0 1134986.0 4459.0
536155.0 1134921.0 4443.0
528200.0 1130554.0 4509.0
536211.0 1134760.0 4482.0
527991.0 1130171.0 4519.0
527960.0 1129983.0 4533.0
537365.0 1134866.0 4445.0
538387.0 1135083.0 4567.0
537576.0 1134707.0 4565.0
536858.0 1134289.0 4610.0
535611.0 1132749.0 4546.0
537332.0 1133410.0 4502.0
536960.0 1133164.0 4487.0
528354.0 1128325.0 4535.0
530297.0 1129124.0 4627.0
529906.0 1128906.0 4603.0
531978.0 1129887.0 4476.0
530334.0 1128992.0 4577.0
529915.0 1128757.0 4584.0
529514.0 1128544.0 4589.0
528206.0 1127622.0 4442.0
537231.0 1132215.0 4552.0
532563.0 1129757.0 4540.0
528239.0 1127386.0 4459.0
537318.0 1131948.0 4568.0
529767.0 1127962.0 4438.0
533049.0 1129508.0 4449.0
533054.0 1129175.0 4521.0
531315.0 1127688.0 4501.0
530779.0 1127137.0 4446.0
532781.0 1127194.0 4631.0
531958.0 1126736.0 4613.0
531576.0 1126549.0 4565.0
533691.0 1127476.0 4591.0
532102.0 1126637.0 4603.0
532896.0 1126769.0 4632.0
532079.0 1126405.0 4522.0
532902.0 1126518.0 4613.0
533926.0 1126811.0 4453.0
533565.0 1122278.0 4621.0
535501.0 1123094.0 4440.0
535193.0 1122555.0 4532.0
536581.0 1122821.0 4524.0
535827.0 1122446.0 4528.0
534581.0 1121724.0 4591.0
535932.0 1122222.0 4541.0
533704.0 1120591.0 4555.0
533709.0 1120386.0 4523.0
534789.0 1120161.0 4539.0
535929.0 1120228.0 4520.0
535563.0 1119639.0 4449.0
527287.0 1134987.0 4424.0
528276.0 1127383.0 4406.0
528059.0 1130215.0 4317.0
528566.0 1126634.0 4355.0
528344.0 1130773.0 4249.0
528268.0 1132535.0 4242.0
528821.0 1126881.0 4260.0
528746.0 1127428.0 4357.0
528344.0 1132769.0 4407.0
528281.0 1134349.0 4321.0
528997.0 1126893.0 4327.0
528972.0 1127472.0 4364.0
528981.0 1128054.0 4244.0
528578.0 1133236.0 4347.0
528483.0 1134361.0 4412.0
529134.0 1128389.0 4249.0
528814.0 1133140.0 4255.0
529250.0 1127908.0 4399.0
529257.0 1128424.0 4300.0
529068.0 1132197.0 4273.0
529297.0 1130873.0 4305.0
529236.0 1132037.0 4246.0
529077.0 1132593.0 4432.0
529676.0 1128433.0 4406.0
529528.0 1130856.0 4429.0
530650.0 1128739.0 4320.0
531063.0 1127034.0 4278.0
530993.0 1128709.0 4242.0
531347.0 1126383.0 4296.0
531270.0 1127542.0 4388.0
531225.0 1128749.0 4320.0
531447.0 1127810.0 4410.0
531435.0 1128990.0 4277.0
531600.0 1127873.0 4381.0
531561.0 1128983.0 4338.0
531705.0 1127794.0 4415.0
531677.0 1128378.0 4342.0
531652.0 1128984.0 4392.0
531989.0 1129178.0 4357.0
532706.0 1132928.0 4315.0
532501.0 1135045.0 4417.0
533075.0 1130895.0 4418.0
534429.0 1121139.0 4337.0
534236.0 1133508.0 4279.0
535040.0 1119763.0 4325.0
535239.0 1122667.0 4295.0
535480.0 1120824.0 4338.0
535634.0 1119518.0 4318.0
535745.0 1120935.0 4329.0
536374.0 1120270.0 4383.0
536027.0 1136478.0 4251.0
536976.0 1121563.0 4277.0
536449.0 1136228.0 4313.0
537102.0 1120661.0 4424.0
537135.0 1121909.0 4399.0
536866.0 1131878.0 4396.0
537061.0 1132079.0 4331.0
536924.0 1135185.0 4374.0
537283.0 1133167.0 4300.0
537194.0 1134833.0 4366.0
537011.0 1120604.0 4298.0
535052.0 1119862.0 4280.0
537170.0 1121229.0 4301.0
535998.0 1120739.0 4294.0
536863.0 1121263.0 4346.0
535794.0 1120880.0 4403.0
536657.0 1121353.0 4290.0
534249.0 1120048.0 4238.0
535533.0 1120839.0 4342.0
534688.0 1120670.0 4342.0
535580.0 1121960.0 4241.0
533474.0 1120892.0 4421.0
534068.0 1121948.0 4305.0
533995.0 1122546.0 4361.0
531336.0 1126480.0 4275.0
531033.0 1126556.0 4256.0
530622.0 1126693.0 4391.0
531414.0 1127147.0 4374.0
531329.0 1127386.0 4428.0
531670.0 1127618.0 4416.0
531430.0 1127727.0 4364.0
528571.0 1126666.0 4404.0
528993.0 1126866.0 4321.0
529382.0 1127161.0 4437.0
528676.0 1126955.0 4278.0
529074.0 1127231.0 4385.0
528947.0 1127521.0 4366.0
531024.0 1128713.0 4311.0
531427.0 1128935.0 4323.0
533040.0 1129963.0 4353.0
528454.0 1127543.0 4304.0
529230.0 1128031.0 4374.0
529589.0 1128271.0 4431.0
530423.0 1128714.0 4353.0
537262.0 1132766.0 4260.0
528592.0 1127936.0 4243.0
529831.0 1128751.0 4417.0
537177.0 1133084.0 4332.0
528445.0 1128244.0 4423.0
535759.0 1132566.0 4352.0
537088.0 1134689.0 4347.0
535983.0 1134348.0 4270.0
530298.0 1131407.0 4248.0
528079.0 1130443.0 4358.0
536612.0 1135355.0 4239.0
535690.0 1135162.0 4434.0
535571.0 1135226.0 4386.0
536019.0 1135460.0 4351.0
529083.0 1131961.0 4299.0
529040.0 1132233.0 4309.0
536287.0 1136498.0 4433.0
532640.0 1134665.0 4405.0
535942.0 1136558.0 4321.0
530614.0 1133837.0 4401.0
532278.0 1134755.0 4404.0
532678.0 1134925.0 4272.0
528279.0 1132720.0 4378.0
528694.0 1132978.0 4353.0
532453.0 1135138.0 4376.0
528532.0 1133873.0 4336.0
528371.0 1134070.0 4309.0
528055.0 1134147.0 4413.0
528433.0 1134304.0 4413.0
528337.0 1134365.0 4305.0
528364.0 1134493.0 4242.0
527363.0 1135099.0 4363.0
537235.0 1134891.0 4416.0
537248.0 1134348.0 4362.0
537361.0 1133267.0 4381.0
536798.0 1136947.0 4292.0
536072.0 1136457.0 4395.0
537152.0 1121332.0 4368.0
535533.0 1135000.0 4324.0
536749.0 1122728.0 4238.0
536942.0 1121281.0 4273.0
535177.0 1133420.0 4359.0
535507.0 1120784.0 4362.0
535534.0 1120318.0 4348.0
534207.0 1126578.0 4419.0
534039.0 1126430.0 4419.0
534505.0 1121174.0 4251.0
532634.0 1134984.0 4256.0
533046.0 1130067.0 4241.0
533141.0 1129533.0 4333.0
532835.0 1130351.0 4286.0
532938.0 1129820.0 4360.0
533672.0 1122176.0 4325.0
533876.0 1120154.0 4259.0
532281.0 1135115.0 4331.0
533522.0 1121621.0 4263.0
532165.0 1130559.0 4271.0
531594.0 1132079.0 4248.0
531888.0 1128783.0 4301.0
531958.0 1128242.0 4390.0
531686.0 1129213.0 4318.0
531732.0 1128174.0 4320.0
531521.0 1128897.0 4306.0
531568.0 1127876.0 4348.0
531032.0 1128739.0 4309.0
530571.0 1128619.0 4410.0
530693.0 1126997.0 4357.0
530344.0 1128564.0 4426.0
528972.0 1133574.0 4308.0
529086.0 1132023.0 4253.0
529374.0 1128427.0 4344.0
529498.0 1127939.0 4420.0
528708.0 1133841.0 4296.0
528810.0 1132753.0 4328.0
528894.0 1131111.0 4245.0
529231.0 1127826.0 4370.0
529273.0 1127295.0 4394.0
528997.0 1127563.0 4329.0
529027.0 1126995.0 4328.0
528283.0 1134480.0 4257.0
528362.0 1133975.0 4331.0
528404.0 1132917.0 4265.0
528572.0 1130845.0 4275.0
528772.0 1127798.0 4248.0
528861.0 1127288.0 4340.0
528913.0 1126771.0 4338.0
528286.0 1132683.0 4299.0
528602.0 1128201.0 4276.0
528623.0 1127656.0 4246.0
528149.0 1132690.0 4431.0
528254.0 1130391.0 4337.0
528429.0 1128121.0 4300.0
528052.0 1130060.0 4398.0
528279.0 1127449.0 4373.0
527387.0 1135088.0 4303.0
528485.0 1134132.0 4246.0
528574.0 1133932.0 4243.0
529320.0 1134034.0 4433.0
530464.0 1134166.0 4373.0
528446.0 1133016.0 4316.0
532453.0 1135033.0 4327.0
528733.0 1132698.0 4378.0
536157.0 1136500.0 4368.0
529359.0 1132764.0 4421.0
536671.0 1136584.0 4280.0
528960.0 1132280.0 4409.0
529045.0 1132067.0 4300.0
535753.0 1135436.0 4296.0
535249.0 1134732.0 4359.0
528857.0 1131248.0 4387.0
531765.0 1132614.0 4249.0
528580.0 1130840.0 4262.0
536935.0 1135135.0 4330.0
534250.0 1133644.0 4411.0
