553976.0 1074247.0 12883.0
555112.0 1081198.0 12948.0
555619.0 1082741.0 13000.0
555805.0 1083665.0 12915.0
554439.0 1073785.0 12956.0
554970.0 1076224.0 12856.0
556103.0 1083121.0 12988.0
555081.0 1076157.0 12878.0
555951.0 1080872.0 12928.0
556083.0 1081787.0 12847.0
554265.0 1071010.0 12977.0
554705.0 1073331.0 12854.0
555925.0 1080078.0 12966.0
554478.0 1071408.0 12935.0
556213.0 1080942.0 12957.0
554617.0 1071611.0 12884.0
555386.0 1075566.0 12866.0
556923.0 1083969.0 12931.0
557377.0 1086636.0 12855.0
554744.0 1071603.0 12904.0
556591.0 1080422.0 12855.0
557480.0 1086176.0 13025.0
554909.0 1071258.0 12889.0
555125.0 1072259.0 12949.0
555159.0 1071975.0 12969.0
556682.0 1079323.0 12957.0
557523.0 1083998.0 12978.0
555593.0 1072993.0 12901.0
556556.0 1077124.0 12978.0
556921.0 1079398.0 12999.0
557735.0 1083816.0 13016.0
557173.0 1078527.0 12885.0
558750.0 1086170.0 12877.0
557254.0 1077370.0 12864.0
557429.0 1078570.0 12950.0
557915.0 1080993.0 12970.0
558740.0 1085680.0 12840.0
558951.0 1086816.0 13020.0
557361.0 1077124.0 12851.0
557751.0 1079490.0 13022.0
557437.0 1077066.0 12867.0
558570.0 1083150.0 13008.0
558783.0 1084331.0 12981.0
557327.0 1075767.0 12858.0
557443.0 1075676.0 12930.0
557736.0 1075704.0 12889.0
559474.0 1083005.0 12900.0
558957.0 1077268.0 12914.0
561635.0 1084517.0 12937.0
561853.0 1085047.0 12912.0
561719.0 1084462.0 13003.0
562188.0 1085433.0 13008.0
562214.0 1082690.0 12948.0
562354.0 1082220.0 12995.0
563074.0 1081825.0 12903.0
558790.0 1072571.0 12960.0
558793.0 1072773.0 12884.0
558526.0 1072542.0 12863.0
555738.0 1070546.0 12945.0
555702.0 1070574.0 12852.0
554438.0 1070772.0 12917.0
554557.0 1071023.0 12936.0
554592.0 1071239.0 12903.0
554103.0 1070943.0 13012.0
554540.0 1071520.0 13030.0
555149.0 1072040.0 12949.0
554648.0 1071697.0 12859.0
555148.0 1072261.0 12981.0
555005.0 1072298.0 12899.0
555073.0 1072565.0 12886.0
556132.0 1073617.0 12912.0
559138.0 1077107.0 13004.0
557636.0 1075697.0 12893.0
557385.0 1075660.0 12927.0
558935.0 1077241.0 12924.0
554717.0 1073217.0 12840.0
559444.0 1078034.0 12931.0
554210.0 1073824.0 12968.0
554269.0 1074080.0 13016.0
554451.0 1074306.0 12926.0
555497.0 1075422.0 12903.0
553877.0 1074273.0 12855.0
558021.0 1078401.0 12972.0
562373.0 1082735.0 12896.0
555283.0 1075896.0 13036.0
557825.0 1078344.0 12948.0
555044.0 1075765.0 12902.0
562129.0 1082901.0 13016.0
555133.0 1076208.0 12932.0
557201.0 1078536.0 12867.0
562071.0 1083283.0 12855.0
557263.0 1078840.0 13017.0
557202.0 1078988.0 12952.0
553803.0 1075914.0 12902.0
553704.0 1076125.0 12981.0
553554.0 1076186.0 13028.0
554163.0 1076709.0 12900.0
560576.0 1083068.0 13003.0
560522.0 1083131.0 12968.0
561778.0 1084697.0 13001.0
562396.0 1085272.0 12905.0
553955.0 1077207.0 12911.0
561830.0 1084933.0 12878.0
560739.0 1084051.0 12992.0
561324.0 1084499.0 12888.0
561808.0 1085037.0 12853.0
559942.0 1083296.0 12919.0
562287.0 1085655.0 12839.0
553149.0 1076931.0 12911.0
556215.0 1079857.0 12991.0
558317.0 1081929.0 12961.0
561526.0 1084971.0 12844.0
556513.0 1080318.0 12912.0
556342.0 1080191.0 12839.0
556201.0 1080291.0 12858.0
553166.0 1077730.0 12908.0
554607.0 1079143.0 12979.0
556142.0 1080601.0 12950.0
556648.0 1081045.0 12865.0
558655.0 1083015.0 12972.0
554717.0 1079492.0 12926.0
558723.0 1083363.0 12976.0
555922.0 1080865.0 12923.0
552649.0 1078218.0 12888.0
558901.0 1084232.0 12949.0
554339.0 1080134.0 12917.0
555956.0 1081606.0 12866.0
554270.0 1080309.0 12893.0
555741.0 1081766.0 12988.0
557940.0 1084238.0 13028.0
555683.0 1082485.0 13022.0
555641.0 1082609.0 12988.0
556177.0 1083147.0 12998.0
555477.0 1082597.0 12901.0
555991.0 1083052.0 12916.0
558586.0 1085537.0 12923.0
559230.0 1086319.0 12990.0
554815.0 1082482.0 12840.0
559015.0 1086916.0 13034.0
555228.0 1084060.0 12885.0
555203.0 1084237.0 12881.0
557466.0 1086420.0 13036.0
555114.0 1084342.0 12936.0
557213.0 1086300.0 13006.0
561643.0 1084987.0 12858.0
562091.0 1083248.0 12979.0
562169.0 1082819.0 12881.0
561412.0 1084842.0 12861.0
561896.0 1082846.0 13012.0
562129.0 1082073.0 12974.0
560666.0 1082919.0 12913.0
559947.0 1083381.0 12850.0
559553.0 1082885.0 12859.0
559071.0 1084050.0 12848.0
558070.0 1085204.0 12952.0
558564.0 1083212.0 12972.0
557689.0 1085979.0 13026.0
558424.0 1082480.0 12911.0
557857.0 1083740.0 13026.0
558184.0 1082006.0 12875.0
558794.0 1077148.0 12849.0
556941.0 1084068.0 12939.0
557009.0 1081314.0 12918.0
557728.0 1078281.0 12978.0
557809.0 1077877.0 12905.0
559081.0 1072751.0 12911.0
556837.0 1080740.0 12840.0
557337.0 1078988.0 13028.0
556647.0 1080556.0 12932.0
556984.0 1079315.0 12980.0
557475.0 1077283.0 12970.0
557504.0 1076851.0 12881.0
555990.0 1082185.0 12869.0
556431.0 1080452.0 12989.0
556497.0 1080001.0 12871.0
556587.0 1079569.0 12867.0
556724.0 1079204.0 12870.0
557515.0 1075743.0 12870.0
555324.0 1084075.0 12991.0
555391.0 1083631.0 12936.0
555444.0 1083205.0 12909.0
555879.0 1081426.0 12931.0
556081.0 1080548.0 12959.0
556194.0 1080141.0 12965.0
556389.0 1079314.0 12872.0
557322.0 1075400.0 13008.0
554903.0 1084253.0 12931.0
555586.0 1081374.0 12946.0
555814.0 1080185.0 12922.0
555486.0 1080079.0 12917.0
554325.0 1080050.0 12870.0
556033.0 1073057.0 12850.0
555136.0 1075958.0 13006.0
555263.0 1075205.0 13031.0
555862.0 1072706.0 12904.0
553818.0 1079349.0 12853.0
554196.0 1077647.0 12878.0
554372.0 1076718.0 12844.0
553681.0 1079331.0 12998.0
554793.0 1074121.0 12927.0
554989.0 1073282.0 12843.0
555313.0 1072085.0 12925.0
553889.0 1077039.0 13015.0
554762.0 1073228.0 12850.0
554952.0 1072357.0 12881.0
555081.0 1071951.0 12884.0
553806.0 1075945.0 12866.0
554451.0 1073346.0 12908.0
552945.0 1078210.0 12846.0
553268.0 1076998.0 12976.0
553598.0 1075762.0 13033.0
553956.0 1074098.0 12997.0
554118.0 1073247.0 12839.0
554501.0 1071639.0 12945.0
554576.0 1071235.0 12856.0
554674.0 1070814.0 12912.0
552549.0 1078482.0 12872.0
552697.0 1078100.0 12952.0
553253.0 1072763.0 12843.0
552993.0 1072686.0 12847.0
553997.0 1084813.0 12886.0
559217.0 1086418.0 12918.0
555250.0 1084562.0 12956.0
554552.0 1084326.0 12995.0
557619.0 1084934.0 12921.0
555697.0 1084233.0 12866.0
555412.0 1084046.0 13011.0
558640.0 1085025.0 12916.0
556091.0 1084006.0 12936.0
555743.0 1083894.0 13036.0
556956.0 1084062.0 12948.0
561763.0 1085539.0 12960.0
557786.0 1084075.0 13022.0
555302.0 1083116.0 12968.0
561731.0 1085263.0 12906.0
559212.0 1084343.0 12949.0
558881.0 1084254.0 12869.0
557820.0 1083855.0 12951.0
556006.0 1083204.0 12900.0
562390.0 1085214.0 12949.0
562033.0 1085144.0 12885.0
557872.0 1083640.0 12872.0
555321.0 1082587.0 13037.0
556036.0 1082571.0 13013.0
558697.0 1083300.0 13000.0
558360.0 1083190.0 13000.0
562405.0 1084486.0 12905.0
558976.0 1083164.0 12944.0
558620.0 1083060.0 12905.0
557927.0 1082480.0 13029.0
556404.0 1081930.0 12927.0
556069.0 1081733.0 12979.0
555710.0 1081641.0 12848.0
558202.0 1082307.0 13022.0
556410.0 1081656.0 12985.0
555665.0 1081420.0 12866.0
561979.0 1083390.0 13000.0
558216.0 1082105.0 12861.0
561911.0 1083067.0 13032.0
556920.0 1081242.0 12998.0
561913.0 1082807.0 12973.0
556955.0 1081006.0 12846.0
556610.0 1080799.0 13025.0
556214.0 1080689.0 12898.0
554472.0 1080026.0 12948.0
557604.0 1080858.0 13022.0
556512.0 1080496.0 13035.0
555754.0 1080269.0 12869.0
562500.0 1082395.0 12954.0
556345.0 1080142.0 12948.0
555990.0 1079990.0 13000.0
556483.0 1079926.0 12890.0
554659.0 1079247.0 12864.0
552654.0 1078196.0 12841.0
562988.0 1081769.0 12856.0
557611.0 1079789.0 12921.0
556930.0 1079475.0 12972.0
556534.0 1079403.0 12846.0
553300.0 1078092.0 13017.0
552568.0 1077889.0 12913.0
557008.0 1079247.0 12960.0
553479.0 1077894.0 13035.0
552777.0 1077673.0 12906.0
557405.0 1078772.0 13005.0
554145.0 1077583.0 12955.0
557455.0 1078546.0 12968.0
557860.0 1078486.0 12883.0
553785.0 1076973.0 13004.0
557783.0 1078155.0 13008.0
558037.0 1077961.0 13026.0
554441.0 1076563.0 13019.0
554100.0 1076494.0 12967.0
557355.0 1077393.0 12920.0
553976.0 1076151.0 12894.0
553633.0 1076004.0 12958.0
557333.0 1077105.0 12852.0
558944.0 1077302.0 12959.0
555026.0 1075929.0 12872.0
555317.0 1075535.0 12854.0
558052.0 1076170.0 12894.0
557716.0 1076019.0 13030.0
553401.0 1074380.0 13017.0
557434.0 1075611.0 12936.0
554020.0 1074068.0 12942.0
555002.0 1074117.0 13009.0
554969.0 1073643.0 13026.0
554622.0 1073529.0 12987.0
555969.0 1073755.0 13025.0
554929.0 1073411.0 12933.0
554589.0 1073288.0 12940.0
555396.0 1073314.0 12850.0
555609.0 1072240.0 12876.0
555264.0 1072096.0 12956.0
554911.0 1071981.0 12885.0
558004.0 1072614.0 12974.0
554650.0 1071425.0 12850.0
558901.0 1072681.0 12878.0
554311.0 1070992.0 13008.0
559266.0 1072542.0 12850.0
552678.0 1078395.0 12827.0
552711.0 1078247.0 12836.0
552849.0 1078278.0 12826.0
554419.0 1084744.0 12836.0
554031.0 1079269.0 12707.0
554154.0 1080332.0 12827.0
554847.0 1084442.0 12742.0
554209.0 1079529.0 12663.0
553402.0 1074268.0 12741.0
554317.0 1079431.0 12675.0
554796.0 1082496.0 12807.0
553238.0 1072851.0 12824.0
553490.0 1074011.0 12741.0
554028.0 1077294.0 12813.0
554434.0 1079434.0 12755.0
553610.0 1074097.0 12752.0
554147.0 1076806.0 12784.0
554538.0 1079465.0 12822.0
555427.0 1084630.0 12666.0
553667.0 1073737.0 12707.0
554221.0 1076895.0 12759.0
555403.0 1083985.0 12820.0
554301.0 1076859.0 12830.0
555165.0 1081171.0 12644.0
555633.0 1084309.0 12749.0
553793.0 1073040.0 12748.0
554210.0 1073407.0 12824.0
554302.0 1072561.0 12703.0
554427.0 1072277.0 12686.0
554623.0 1073230.0 12709.0
555183.0 1075578.0 12813.0
554708.0 1072627.0 12825.0
557239.0 1086522.0 12834.0
556308.0 1080286.0 12836.0
556519.0 1081235.0 12662.0
557475.0 1086049.0 12768.0
554996.0 1071971.0 12769.0
555190.0 1073223.0 12837.0
556375.0 1079288.0 12824.0
555347.0 1073220.0 12792.0
556541.0 1079100.0 12657.0
555480.0 1073158.0 12739.0
555606.0 1073191.0 12740.0
557003.0 1080514.0 12702.0
558034.0 1086200.0 12710.0
557971.0 1085451.0 12770.0
558227.0 1085971.0 12673.0
557061.0 1078676.0 12749.0
556187.0 1073576.0 12801.0
557041.0 1077502.0 12658.0
557540.0 1080424.0 12764.0
557945.0 1082287.0 12647.0
557123.0 1077240.0 12711.0
557057.0 1076109.0 12693.0
557285.0 1076820.0 12686.0
557176.0 1075969.0 12783.0
557548.0 1076722.0 12729.0
559058.0 1083757.0 12819.0
559157.0 1083471.0 12823.0
559294.0 1083557.0 12778.0
558509.0 1072241.0 12797.0
561288.0 1084451.0 12729.0
561717.0 1085376.0 12661.0
559179.0 1072670.0 12832.0
561959.0 1085703.0 12774.0
559227.0 1072601.0 12836.0
562060.0 1085629.0 12723.0
562108.0 1085638.0 12695.0
562601.0 1085502.0 12812.0
558544.0 1072401.0 12808.0
558374.0 1072347.0 12702.0
558449.0 1072517.0 12710.0
555519.0 1071545.0 12655.0
555620.0 1071789.0 12756.0
556223.0 1073258.0 12711.0
554450.0 1071693.0 12787.0
556171.0 1073474.0 12793.0
555618.0 1073094.0 12776.0
554432.0 1072000.0 12666.0
555448.0 1073082.0 12754.0
554414.0 1072162.0 12677.0
554463.0 1072465.0 12780.0
554991.0 1072978.0 12777.0
554329.0 1072501.0 12737.0
554814.0 1073015.0 12806.0
554147.0 1072632.0 12799.0
562948.0 1081795.0 12825.0
553897.0 1072875.0 12792.0
553467.0 1072597.0 12705.0
554067.0 1073121.0 12678.0
557008.0 1076058.0 12727.0
557544.0 1076650.0 12766.0
553200.0 1072749.0 12795.0
557336.0 1076796.0 12723.0
553171.0 1072885.0 12781.0
553771.0 1073419.0 12687.0
557293.0 1076929.0 12740.0
553955.0 1073765.0 12740.0
557204.0 1076976.0 12713.0
562038.0 1081841.0 12685.0
553405.0 1073422.0 12783.0
553895.0 1073919.0 12812.0
555397.0 1075401.0 12813.0
556998.0 1076944.0 12717.0
562699.0 1082721.0 12767.0
553553.0 1073724.0 12714.0
555277.0 1075398.0 12743.0
557030.0 1077123.0 12727.0
557573.0 1077743.0 12803.0
557064.0 1077309.0 12692.0
557553.0 1077855.0 12702.0
553795.0 1074299.0 12777.0
556899.0 1077315.0 12678.0
553358.0 1074024.0 12661.0
553419.0 1074299.0 12767.0
553237.0 1074241.0 12640.0
556948.0 1078866.0 12694.0
561806.0 1084217.0 12757.0
554217.0 1076869.0 12764.0
554294.0 1077066.0 12708.0
556402.0 1079122.0 12726.0
557406.0 1080053.0 12683.0
557141.0 1079953.0 12675.0
557661.0 1080564.0 12752.0
561334.0 1084359.0 12814.0
562406.0 1085408.0 12765.0
554251.0 1077554.0 12685.0
554737.0 1078065.0 12673.0
556798.0 1079972.0 12699.0
557273.0 1080443.0 12658.0
557798.0 1080927.0 12680.0
562325.0 1085510.0 12789.0
557099.0 1080444.0 12671.0
561747.0 1085092.0 12812.0
556778.0 1080313.0 12767.0
562070.0 1085475.0 12677.0
557117.0 1080716.0 12660.0
561205.0 1084734.0 12671.0
561695.0 1085267.0 12678.0
562218.0 1085748.0 12753.0
561619.0 1085287.0 12662.0
562207.0 1085852.0 12715.0
559313.0 1083257.0 12718.0
557171.0 1081464.0 12655.0
555899.0 1080556.0 12799.0
556488.0 1081099.0 12801.0
557079.0 1081630.0 12660.0
554403.0 1079356.0 12719.0
559065.0 1083841.0 12774.0
552885.0 1078233.0 12745.0
553901.0 1079122.0 12703.0
554404.0 1079613.0 12771.0
558937.0 1083928.0 12802.0
553829.0 1079242.0 12715.0
554349.0 1079844.0 12834.0
556815.0 1082637.0 12679.0
554100.0 1080298.0 12816.0
557499.0 1083747.0 12834.0
557064.0 1083317.0 12703.0
556223.0 1082701.0 12714.0
555786.0 1082904.0 12648.0
555648.0 1083525.0 12702.0
555310.0 1083851.0 12760.0
555814.0 1084319.0 12686.0
555672.0 1084458.0 12779.0
557010.0 1085794.0 12775.0
554848.0 1084212.0 12792.0
557336.0 1086491.0 12815.0
562435.0 1085838.0 12735.0
562525.0 1085412.0 12739.0
562200.0 1085608.0 12813.0
561950.0 1085576.0 12782.0
562049.0 1085145.0 12659.0
562598.0 1082716.0 12702.0
561848.0 1084886.0 12816.0
562404.0 1082762.0 12782.0
561431.0 1085386.0 12664.0
560658.0 1084138.0 12834.0
559343.0 1087085.0 12793.0
559181.0 1086623.0 12794.0
558958.0 1086132.0 12679.0
559476.0 1083967.0 12672.0
558792.0 1084817.0 12708.0
558326.0 1085959.0 12640.0
559085.0 1082958.0 12790.0
558120.0 1085931.0 12758.0
558388.0 1084598.0 12688.0
558883.0 1082865.0 12820.0
557719.0 1086453.0 12835.0
557867.0 1086091.0 12816.0
557819.0 1082214.0 12771.0
557133.0 1083868.0 12714.0
557257.0 1083472.0 12692.0
557696.0 1080586.0 12763.0
557748.0 1080152.0 12729.0
559631.0 1072423.0 12677.0
556903.0 1082582.0 12662.0
557021.0 1082179.0 12702.0
557200.0 1081388.0 12716.0
557523.0 1080169.0 12733.0
559392.0 1072526.0 12808.0
557037.0 1080850.0 12672.0
557875.0 1076322.0 12690.0
555827.0 1083785.0 12734.0
557031.0 1078911.0 12821.0
557052.0 1078488.0 12692.0
557747.0 1075651.0 12726.0
555622.0 1083454.0 12691.0
556022.0 1081759.0 12753.0
557159.0 1076999.0 12794.0
556865.0 1077071.0 12694.0
556245.0 1078117.0 12709.0
556568.0 1076949.0 12821.0
554828.0 1082632.0 12706.0
555240.0 1080918.0 12684.0
554742.0 1081010.0 12653.0
556039.0 1073667.0 12816.0
556229.0 1072811.0 12723.0
554418.0 1079618.0 12820.0
554021.0 1080432.0 12836.0
554098.0 1080010.0 12788.0
554173.0 1079594.0 12744.0
554248.0 1079215.0 12650.0
554486.0 1077997.0 12684.0
555074.0 1075534.0 12706.0
555698.0 1073108.0 12739.0
553926.0 1079527.0 12725.0
555462.0 1073147.0 12789.0
555707.0 1071856.0 12657.0
555207.0 1073302.0 12833.0
555510.0 1072002.0 12790.0
554097.0 1076932.0 12689.0
554238.0 1076505.0 12830.0
555340.0 1071701.0 12807.0
554508.0 1072911.0 12816.0
554606.0 1072456.0 12811.0
554815.0 1071581.0 12809.0
552989.0 1077835.0 12757.0
553938.0 1073646.0 12681.0
554165.0 1072845.0 12786.0
554257.0 1072455.0 12732.0
554288.0 1072033.0 12668.0
553658.0 1073304.0 12644.0
553852.0 1072894.0 12818.0
554353.0 1070754.0 12715.0
553570.0 1072781.0 12821.0
553585.0 1068882.0 12680.0
560639.0 1087249.0 12656.0
558024.0 1086219.0 12781.0
558099.0 1086011.0 12779.0
557960.0 1085168.0 12709.0
555426.0 1083807.0 12837.0
555774.0 1083689.0 12758.0
555428.0 1083502.0 12797.0
562425.0 1085906.0 12731.0
562094.0 1085732.0 12788.0
557035.0 1083875.0 12776.0
555595.0 1083378.0 12655.0
562398.0 1085552.0 12815.0
562061.0 1085459.0 12830.0
561385.0 1085094.0 12826.0
561630.0 1085051.0 12791.0
561312.0 1084894.0 12826.0
557153.0 1083339.0 12802.0
554893.0 1082540.0 12677.0
561449.0 1084687.0 12742.0
555279.0 1082361.0 12832.0
556156.0 1082470.0 12689.0
557464.0 1082700.0 12809.0
559664.0 1083228.0 12764.0
558935.0 1082929.0 12790.0
559600.0 1082935.0 12663.0
558544.0 1082498.0 12820.0
555975.0 1081618.0 12758.0
560800.0 1083115.0 12811.0
554098.0 1080515.0 12832.0
557273.0 1081509.0 12653.0
554049.0 1080210.0 12810.0
557258.0 1081196.0 12671.0
555768.0 1080672.0 12660.0
555511.0 1080531.0 12765.0
554074.0 1079955.0 12770.0
562495.0 1082767.0 12784.0
556909.0 1080715.0 12714.0
554229.0 1079718.0 12774.0
553872.0 1079586.0 12751.0
554480.0 1079495.0 12802.0
554105.0 1079406.0 12662.0
553770.0 1079234.0 12784.0
562207.0 1082068.0 12780.0
561911.0 1081974.0 12773.0
552809.0 1078574.0 12681.0
552556.0 1078398.0 12806.0
562402.0 1081864.0 12828.0
557881.0 1080208.0 12816.0
557583.0 1080123.0 12780.0
552968.0 1078340.0 12792.0
562698.0 1081674.0 12825.0
556173.0 1079281.0 12830.0
556622.0 1079174.0 12751.0
556934.0 1078973.0 12777.0
557070.0 1078504.0 12698.0
556384.0 1078241.0 12650.0
556695.0 1077814.0 12723.0
554124.0 1076940.0 12664.0
556964.0 1077013.0 12715.0
559101.0 1077177.0 12802.0
558721.0 1077049.0 12713.0
557855.0 1076454.0 12720.0
555020.0 1075394.0 12718.0
557340.0 1075934.0 12795.0
557804.0 1075866.0 12641.0
553642.0 1073987.0 12756.0
553281.0 1073870.0 12675.0
554246.0 1073976.0 12730.0
553891.0 1073854.0 12689.0
553563.0 1073727.0 12642.0
553857.0 1073393.0 12670.0
553164.0 1073015.0 12800.0
553874.0 1073055.0 12780.0
553509.0 1072935.0 12802.0
553133.0 1072846.0 12761.0
552782.0 1072669.0 12756.0
556110.0 1073645.0 12727.0
555005.0 1073203.0 12772.0
554633.0 1073066.0 12826.0
554270.0 1072929.0 12815.0
553891.0 1072868.0 12666.0
555719.0 1073227.0 12682.0
555379.0 1073115.0 12697.0
554318.0 1072648.0 12768.0
555905.0 1072911.0 12797.0
554378.0 1072428.0 12673.0
555970.0 1072661.0 12816.0
554478.0 1072079.0 12837.0
554534.0 1071884.0 12799.0
555669.0 1072052.0 12777.0
555311.0 1071914.0 12809.0
554956.0 1071788.0 12825.0
554606.0 1071671.0 12832.0
555707.0 1071872.0 12670.0
555006.0 1071596.0 12719.0
558560.0 1072572.0 12780.0
554651.0 1071198.0 12777.0
554671.0 1070927.0 12781.0
554326.0 1070805.0 12811.0
559496.0 1072401.0 12730.0
556521.0 1070733.0 12759.0
552850.0 1078034.0 12542.0
553721.0 1078809.0 12578.0
553887.0 1079672.0 12465.0
554017.0 1079935.0 12630.0
553279.0 1074149.0 12607.0
554005.0 1077362.0 12584.0
555376.0 1084683.0 12537.0
553518.0 1072626.0 12580.0
553790.0 1073491.0 12575.0
554609.0 1077960.0 12608.0
555345.0 1082239.0 12625.0
554880.0 1078960.0 12586.0
555681.0 1083366.0 12601.0
554582.0 1072153.0 12509.0
555073.0 1073827.0 12481.0
557189.0 1083915.0 12505.0
557089.0 1082699.0 12600.0
557371.0 1083752.0 12628.0
557267.0 1082254.0 12489.0
556640.0 1078103.0 12503.0
557332.0 1081673.0 12442.0
556692.0 1077887.0 12512.0
556841.0 1078854.0 12501.0
557205.0 1080762.0 12552.0
557528.0 1082633.0 12556.0
556873.0 1078224.0 12570.0
557279.0 1080481.0 12637.0
556898.0 1077478.0 12584.0
557292.0 1079845.0 12636.0
557821.0 1082174.0 12463.0
558435.0 1085667.0 12451.0
557823.0 1080640.0 12489.0
556565.0 1070736.0 12498.0
557810.0 1076094.0 12603.0
560246.0 1087071.0 12489.0
558796.0 1076829.0 12518.0
560853.0 1084657.0 12449.0
561064.0 1084986.0 12603.0
561564.0 1085369.0 12571.0
562483.0 1085178.0 12604.0
562573.0 1085112.0 12477.0
561975.0 1081624.0 12477.0
556565.0 1070766.0 12506.0
558203.0 1072375.0 12596.0
556576.0 1070871.0 12453.0
558068.0 1072472.0 12458.0
553588.0 1069353.0 12531.0
555148.0 1071187.0 12597.0
554592.0 1071968.0 12571.0
558821.0 1076696.0 12527.0
559013.0 1077276.0 12605.0
557284.0 1076467.0 12555.0
556858.0 1076198.0 12472.0
562110.0 1081480.0 12456.0
562596.0 1082050.0 12586.0
561830.0 1081924.0 12615.0
553431.0 1073699.0 12571.0
556850.0 1077412.0 12629.0
557443.0 1077981.0 12584.0
556607.0 1077341.0 12631.0
556807.0 1077687.0 12567.0
557004.0 1078019.0 12582.0
556772.0 1077914.0 12535.0
556830.0 1078194.0 12571.0
556740.0 1078322.0 12547.0
556351.0 1078416.0 12448.0
556805.0 1078917.0 12587.0
554227.0 1077106.0 12552.0
556137.0 1079120.0 12498.0
557183.0 1080147.0 12610.0
557691.0 1080675.0 12570.0
560353.0 1083448.0 12596.0
554764.0 1078196.0 12596.0
557700.0 1080952.0 12494.0
561209.0 1084387.0 12501.0
553741.0 1077258.0 12469.0
557376.0 1080766.0 12491.0
558602.0 1082129.0 12590.0
560735.0 1084189.0 12565.0
561048.0 1084687.0 12582.0
560961.0 1084800.0 12487.0
561522.0 1085303.0 12561.0
553673.0 1078282.0 12442.0
557716.0 1082111.0 12441.0
559349.0 1083795.0 12567.0
556505.0 1081311.0 12585.0
557571.0 1082266.0 12484.0
557451.0 1082421.0 12525.0
557283.0 1082441.0 12506.0
553915.0 1079522.0 12509.0
557026.0 1082515.0 12563.0
557315.0 1083667.0 12612.0
559846.0 1086189.0 12621.0
557274.0 1083753.0 12507.0
559778.0 1086221.0 12610.0
559769.0 1086306.0 12489.0
557133.0 1083911.0 12470.0
560262.0 1086909.0 12471.0
560397.0 1087165.0 12442.0
555759.0 1083052.0 12629.0
558625.0 1085706.0 12488.0
556940.0 1084303.0 12460.0
558735.0 1086222.0 12451.0
555607.0 1083759.0 12573.0
561611.0 1085718.0 12594.0
562015.0 1081615.0 12484.0
560414.0 1087100.0 12487.0
560440.0 1083325.0 12450.0
559308.0 1084353.0 12521.0
557834.0 1085597.0 12455.0
558402.0 1082050.0 12576.0
557320.0 1083802.0 12556.0
559000.0 1076953.0 12546.0
556960.0 1084277.0 12550.0
557378.0 1082541.0 12591.0
557549.0 1081694.0 12446.0
557860.0 1080442.0 12586.0
557955.0 1080041.0 12554.0
558736.0 1076688.0 12457.0
557503.0 1080980.0 12604.0
557261.0 1080953.0 12538.0
557088.0 1080438.0 12580.0
558076.0 1076138.0 12447.0
556039.0 1083771.0 12497.0
556310.0 1082471.0 12546.0
556891.0 1080249.0 12621.0
557934.0 1075888.0 12615.0
555729.0 1084231.0 12610.0
556065.0 1082551.0 12534.0
556653.0 1078709.0 12493.0
556756.0 1078282.0 12521.0
556870.0 1077856.0 12572.0
556961.0 1077410.0 12630.0
558273.0 1072348.0 12607.0
556479.0 1078351.0 12570.0
556565.0 1077923.0 12608.0
555088.0 1082576.0 12474.0
553953.0 1084566.0 12440.0
554759.0 1081515.0 12564.0
556097.0 1073237.0 12602.0
556673.0 1070650.0 12483.0
556763.0 1070238.0 12480.0
554470.0 1079175.0 12623.0
553765.0 1079941.0 12569.0
553997.0 1079105.0 12630.0
554403.0 1076918.0 12450.0
554672.0 1076096.0 12608.0
555799.0 1071492.0 12552.0
554159.0 1077163.0 12444.0
555497.0 1071512.0 12472.0
555703.0 1070739.0 12465.0
553642.0 1078535.0 12579.0
553930.0 1077312.0 12543.0
555353.0 1071268.0 12511.0
555581.0 1070489.0 12552.0
553687.0 1077475.0 12609.0
553566.0 1073707.0 12600.0
553247.0 1073640.0 12521.0
553679.0 1069301.0 12501.0
553152.0 1070049.0 12479.0
552863.0 1069954.0 12539.0
558451.0 1085955.0 12635.0
558218.0 1085327.0 12489.0
555943.0 1083554.0 12536.0
555302.0 1083036.0 12492.0
560898.0 1084835.0 12490.0
559375.0 1084305.0 12479.0
554859.0 1082306.0 12548.0
555411.0 1082251.0 12529.0
560014.0 1083421.0 12607.0
557441.0 1082485.0 12550.0
556022.0 1081910.0 12564.0
557442.0 1082205.0 12549.0
558580.0 1082317.0 12572.0
557413.0 1081883.0 12590.0
558277.0 1081931.0 12510.0
557570.0 1081080.0 12476.0
557219.0 1080898.0 12621.0
557021.0 1080534.0 12587.0
556696.0 1080386.0 12614.0
557175.0 1080330.0 12557.0
561983.0 1081794.0 12605.0
557144.0 1080052.0 12609.0
554451.0 1079061.0 12492.0
562283.0 1081620.0 12589.0
557190.0 1079810.0 12616.0
556253.0 1079117.0 12511.0
553066.0 1077919.0 12542.0
556535.0 1078919.0 12496.0
556944.0 1078761.0 12580.0
556636.0 1078669.0 12503.0
556288.0 1078498.0 12565.0
553845.0 1077316.0 12594.0
554061.0 1077286.0 12474.0
556908.0 1077712.0 12592.0
556602.0 1077536.0 12626.0
556818.0 1076471.0 12463.0
554953.0 1075721.0 12624.0
558945.0 1076904.0 12523.0
557130.0 1076231.0 12619.0
553753.0 1073636.0 12568.0
554087.0 1072319.0 12583.0
554059.0 1072061.0 12510.0
554126.0 1071840.0 12539.0
555360.0 1071737.0 12629.0
551622.0 1070432.0 12491.0
555647.0 1071631.0 12540.0
555305.0 1071499.0 12580.0
558492.0 1072404.0 12623.0
555666.0 1071404.0 12466.0
555337.0 1071279.0 12497.0
553135.0 1070151.0 12440.0
556756.0 1070935.0 12439.0
556447.0 1070815.0 12450.0
553541.0 1069727.0 12504.0
553587.0 1069415.0 12454.0
553710.0 1069124.0 12532.0
553071.0 1077502.0 12261.0
553187.0 1077183.0 12279.0
553410.0 1077501.0 12310.0
553572.0 1078585.0 12415.0
553640.0 1077924.0 12344.0
553784.0 1077863.0 12294.0
554904.0 1084818.0 12361.0
554856.0 1083395.0 12269.0
554045.0 1077782.0 12268.0
554916.0 1082991.0 12429.0
554995.0 1081206.0 12298.0
555434.0 1082974.0 12337.0
553226.0 1070093.0 12428.0
553400.0 1069441.0 12374.0
554047.0 1072426.0 12321.0
556189.0 1084531.0 12286.0
553667.0 1069871.0 12388.0
554183.0 1072240.0 12411.0
556365.0 1084374.0 12339.0
556119.0 1081966.0 12405.0
556321.0 1079259.0 12352.0
556318.0 1078068.0 12407.0
556449.0 1078118.0 12425.0
557806.0 1085593.0 12372.0
556484.0 1077794.0 12432.0
556781.0 1078945.0 12242.0
557885.0 1085494.0 12379.0
557456.0 1081715.0 12400.0
558037.0 1084480.0 12242.0
555523.0 1071161.0 12433.0
556050.0 1073536.0 12266.0
557647.0 1081561.0 12291.0
558218.0 1084845.0 12344.0
555719.0 1071153.0 12374.0
556741.0 1076222.0 12332.0
557664.0 1081027.0 12393.0
557809.0 1081338.0 12409.0
558497.0 1085137.0 12374.0
558698.0 1085975.0 12353.0
559282.0 1086164.0 12305.0
559584.0 1085979.0 12408.0
559841.0 1087068.0 12386.0
559570.0 1084607.0 12271.0
559969.0 1086978.0 12364.0
559672.0 1084483.0 12270.0
560167.0 1087346.0 12360.0
558716.0 1076630.0 12247.0
560349.0 1083814.0 12304.0
560586.0 1083815.0 12267.0
560835.0 1085043.0 12336.0
560617.0 1083642.0 12404.0
561673.0 1081785.0 12327.0
562134.0 1081406.0 12376.0
562254.0 1081180.0 12266.0
559725.0 1072480.0 12426.0
556759.0 1070255.0 12427.0
554217.0 1068341.0 12301.0
554269.0 1068568.0 12316.0
554334.0 1068786.0 12367.0
554224.0 1068969.0 12254.0
555492.0 1070524.0 12400.0
555314.0 1070471.0 12353.0
555722.0 1071270.0 12322.0
553238.0 1069057.0 12328.0
553545.0 1069531.0 12413.0
556036.0 1073480.0 12332.0
555989.0 1074179.0 12287.0
554552.0 1072909.0 12290.0
555545.0 1074231.0 12262.0
562201.0 1081373.0 12419.0
556804.0 1076267.0 12409.0
554594.0 1074209.0 12274.0
556732.0 1076312.0 12337.0
561784.0 1081621.0 12435.0
553372.0 1073715.0 12433.0
561623.0 1081848.0 12356.0
552831.0 1073633.0 12262.0
557362.0 1078114.0 12422.0
556477.0 1078266.0 12393.0
556608.0 1078798.0 12325.0
553885.0 1076545.0 12381.0
556077.0 1078702.0 12246.0
554253.0 1077615.0 12415.0
560679.0 1083750.0 12245.0
557861.0 1081229.0 12411.0
553644.0 1077271.0 12406.0
557722.0 1081145.0 12384.0
553536.0 1077301.0 12341.0
557613.0 1081170.0 12347.0
553196.0 1077170.0 12296.0
553699.0 1077644.0 12302.0
557881.0 1081623.0 12284.0
553761.0 1078028.0 12375.0
557788.0 1081864.0 12346.0
560868.0 1084888.0 12423.0
553157.0 1077771.0 12409.0
554314.0 1078803.0 12263.0
553507.0 1078323.0 12351.0
553516.0 1078554.0 12368.0
553844.0 1079675.0 12427.0
555910.0 1081591.0 12350.0
556454.0 1082346.0 12292.0
553740.0 1079870.0 12388.0
554751.0 1080840.0 12412.0
554665.0 1080775.0 12412.0
555141.0 1081233.0 12253.0
554889.0 1081043.0 12273.0
554877.0 1081132.0 12245.0
556339.0 1082558.0 12351.0
559384.0 1085636.0 12384.0
558399.0 1084704.0 12271.0
559347.0 1085694.0 12300.0
560339.0 1086856.0 12413.0
558220.0 1084906.0 12412.0
558393.0 1085184.0 12395.0
559820.0 1086752.0 12346.0
560392.0 1087328.0 12412.0
558551.0 1085723.0 12371.0
560060.0 1087218.0 12345.0
555134.0 1083215.0 12371.0
556251.0 1084281.0 12410.0
559689.0 1087464.0 12258.0
559533.0 1087599.0 12244.0
554823.0 1083403.0 12290.0
559387.0 1087621.0 12324.0
555929.0 1084619.0 12307.0
555819.0 1084673.0 12280.0
555462.0 1084574.0 12340.0
554034.0 1083962.0 12240.0
554907.0 1084855.0 12372.0
554186.0 1084613.0 12387.0
561262.0 1084409.0 12286.0
560818.0 1084920.0 12404.0
561491.0 1081948.0 12280.0
561674.0 1081562.0 12297.0
559897.0 1087587.0 12296.0
559679.0 1087367.0 12276.0
560671.0 1083315.0 12326.0
559383.0 1087614.0 12361.0
559446.0 1087172.0 12270.0
560283.0 1083678.0 12333.0
560062.0 1083578.0 12339.0
559581.0 1084178.0 12271.0
558397.0 1085100.0 12269.0
558468.0 1084714.0 12265.0
557929.0 1086305.0 12400.0
558131.0 1085470.0 12410.0
558023.0 1084378.0 12275.0
557837.0 1081396.0 12312.0
557634.0 1081285.0 12413.0
557714.0 1080866.0 12389.0
559753.0 1072448.0 12272.0
559878.0 1072038.0 12366.0
556283.0 1084647.0 12271.0
556015.0 1084705.0 12342.0
555790.0 1084668.0 12392.0
555823.0 1083358.0 12406.0
556110.0 1081768.0 12289.0
556786.0 1078828.0 12340.0
558410.0 1072398.0 12330.0
558073.0 1072692.0 12278.0
557811.0 1072347.0 12272.0
554959.0 1082977.0 12300.0
555918.0 1078901.0 12292.0
555999.0 1078493.0 12339.0
555003.0 1081361.0 12352.0
556229.0 1073328.0 12406.0
554674.0 1078819.0 12391.0
555796.0 1074041.0 12347.0
554435.0 1078696.0 12301.0
554782.0 1077819.0 12332.0
554237.0 1078770.0 12397.0
554283.0 1078355.0 12246.0
554269.0 1077352.0 12358.0
555797.0 1071011.0 12320.0
553986.0 1077547.0 12296.0
555574.0 1071134.0 12397.0
553671.0 1078074.0 12300.0
553358.0 1078305.0 12282.0
553464.0 1077866.0 12291.0
555243.0 1070596.0 12429.0
555268.0 1070223.0 12311.0
553062.0 1078089.0 12247.0
553098.0 1077634.0 12279.0
552982.0 1077295.0 12339.0
553396.0 1069245.0 12392.0
553013.0 1069845.0 12376.0
552980.0 1069097.0 12292.0
551806.0 1070461.0 12337.0
559354.0 1087616.0 12335.0
559894.0 1087611.0 12296.0
559552.0 1087480.0 12295.0
560048.0 1087359.0 12344.0
559666.0 1087249.0 12263.0
560216.0 1087207.0 12362.0
560209.0 1087012.0 12285.0
555951.0 1084822.0 12256.0
555974.0 1084643.0 12256.0
558228.0 1085035.0 12436.0
556364.0 1084431.0 12319.0
558370.0 1084852.0 12265.0
558096.0 1084418.0 12388.0
555642.0 1083199.0 12370.0
554944.0 1083021.0 12252.0
559708.0 1084515.0 12253.0
555203.0 1082794.0 12325.0
561021.0 1084656.0 12435.0
562538.0 1085031.0 12250.0
561500.0 1084549.0 12418.0
561141.0 1084469.0 12411.0
560346.0 1083565.0 12406.0
560280.0 1083358.0 12433.0
554933.0 1081412.0 12252.0
557924.0 1081805.0 12437.0
557597.0 1081729.0 12383.0
557917.0 1081599.0 12274.0
557603.0 1081424.0 12427.0
557908.0 1081283.0 12263.0
557707.0 1080873.0 12392.0
557374.0 1080743.0 12400.0
561435.0 1081980.0 12278.0
557887.0 1080696.0 12262.0
556820.0 1080211.0 12376.0
561897.0 1081555.0 12384.0
554325.0 1078756.0 12289.0
553587.0 1078482.0 12326.0
554430.0 1078553.0 12255.0
553717.0 1078277.0 12329.0
553397.0 1078130.0 12348.0
556144.0 1078837.0 12379.0
553525.0 1077913.0 12266.0
553712.0 1077680.0 12297.0
553339.0 1077559.0 12259.0
556632.0 1078535.0 12304.0
554486.0 1077713.0 12321.0
554121.0 1077528.0 12306.0
553471.0 1077318.0 12417.0
553093.0 1077240.0 12261.0
556660.0 1078341.0 12291.0
556769.0 1076243.0 12256.0
558128.0 1076098.0 12372.0
552849.0 1073865.0 12314.0
553112.0 1073726.0 12311.0
554099.0 1073859.0 12427.0
553362.0 1073624.0 12297.0
555920.0 1074209.0 12383.0
555590.0 1074143.0 12332.0
554975.0 1073042.0 12302.0
554642.0 1072916.0 12290.0
558188.0 1072527.0 12436.0
555738.0 1071183.0 12390.0
555382.0 1071072.0 12332.0
555510.0 1070810.0 12417.0
553282.0 1070109.0 12244.0
552977.0 1069914.0 12387.0
551878.0 1069556.0 12248.0
555367.0 1070445.0 12351.0
556886.0 1070304.0 12377.0
552797.0 1077051.0 12074.0
552903.0 1077181.0 12176.0
553111.0 1078220.0 12118.0
552176.0 1070950.0 12045.0
553379.0 1078192.0 12214.0
554362.0 1084112.0 12159.0
553571.0 1077077.0 12088.0
553101.0 1073710.0 12131.0
553221.0 1073749.0 12190.0
554880.0 1081427.0 12056.0
554989.0 1081535.0 12202.0
554645.0 1078505.0 12136.0
555336.0 1082941.0 12213.0
555004.0 1079008.0 12042.0
555660.0 1083272.0 12153.0
555300.0 1079018.0 12092.0
555816.0 1081837.0 12050.0
555463.0 1078992.0 12223.0
553796.0 1068826.0 12074.0
554954.0 1074968.0 12220.0
554269.0 1070267.0 12063.0
555897.0 1078971.0 12067.0
556780.0 1084509.0 12231.0
554041.0 1068542.0 12108.0
555170.0 1074411.0 12149.0
555978.0 1078941.0 12237.0
556926.0 1084298.0 12175.0
554187.0 1068845.0 12217.0
554232.0 1068585.0 12226.0
555444.0 1074540.0 12188.0
556953.0 1079293.0 12126.0
558229.0 1080975.0 12140.0
558236.0 1080722.0 12152.0
559064.0 1085493.0 12142.0
559464.0 1087332.0 12069.0
557815.0 1078226.0 12236.0
558361.0 1080567.0 12047.0
559548.0 1087258.0 12143.0
559526.0 1086610.0 12097.0
559758.0 1087250.0 12117.0
559737.0 1083731.0 12121.0
560022.0 1084163.0 12038.0
557769.0 1072321.0 12119.0
558669.0 1076500.0 12072.0
557432.0 1070360.0 12039.0
558087.0 1072818.0 12109.0
558096.0 1072663.0 12215.0
560892.0 1085440.0 12097.0
561271.0 1083367.0 12088.0
561209.0 1081754.0 12069.0
561502.0 1081800.0 12230.0
561552.0 1081306.0 12057.0
562212.0 1084253.0 12100.0
561773.0 1081349.0 12146.0
561925.0 1081339.0 12205.0
558014.0 1072515.0 12186.0
554051.0 1068542.0 12133.0
556474.0 1070978.0 12142.0
555378.0 1070115.0 12219.0
558068.0 1072802.0 12092.0
554014.0 1068854.0 12096.0
553112.0 1068917.0 12043.0
552752.0 1068816.0 12145.0
555692.0 1073331.0 12061.0
556196.0 1073815.0 12044.0
552409.0 1070335.0 12181.0
555981.0 1073880.0 12230.0
558662.0 1076493.0 12131.0
555494.0 1073613.0 12192.0
552126.0 1070717.0 12039.0
555333.0 1074184.0 12220.0
555279.0 1074298.0 12206.0
555072.0 1074421.0 12142.0
555159.0 1074659.0 12116.0
555079.0 1074764.0 12194.0
556613.0 1076296.0 12235.0
554856.0 1074673.0 12116.0
556590.0 1076386.0 12150.0
553049.0 1073633.0 12159.0
557026.0 1079418.0 12047.0
560653.0 1082952.0 12144.0
558419.0 1080939.0 12073.0
560817.0 1083326.0 12196.0
558380.0 1081007.0 12076.0
556433.0 1079302.0 12188.0
555518.0 1078591.0 12038.0
554795.0 1078154.0 12198.0
560613.0 1083783.0 12227.0
558260.0 1081565.0 12130.0
555332.0 1078885.0 12098.0
555330.0 1079084.0 12069.0
552841.0 1077062.0 12205.0
554825.0 1078902.0 12107.0
555357.0 1079353.0 12057.0
559892.0 1083811.0 12132.0
560419.0 1084304.0 12104.0
553021.0 1077779.0 12146.0
560772.0 1085221.0 12142.0
552623.0 1077553.0 12054.0
559606.0 1084272.0 12080.0
553361.0 1078581.0 12152.0
555676.0 1080742.0 12119.0
559672.0 1084638.0 12205.0
553512.0 1078959.0 12085.0
555431.0 1081097.0 12198.0
555376.0 1081183.0 12170.0
555311.0 1081269.0 12193.0
555852.0 1081718.0 12106.0
555694.0 1081662.0 12127.0
556157.0 1082150.0 12103.0
555479.0 1081551.0 12159.0
556080.0 1082062.0 12045.0
555353.0 1081604.0 12173.0
558415.0 1084600.0 12188.0
554936.0 1081333.0 12181.0
555343.0 1082369.0 12056.0
559598.0 1086691.0 12182.0
555278.0 1082919.0 12176.0
557764.0 1085286.0 12227.0
559740.0 1087157.0 12230.0
554932.0 1083243.0 12208.0
556445.0 1084652.0 12194.0
555985.0 1084922.0 12145.0
554443.0 1084036.0 12173.0
554364.0 1084048.0 12096.0
562482.0 1084946.0 12236.0
562162.0 1081447.0 12106.0
559946.0 1087131.0 12223.0
560609.0 1084563.0 12152.0
559739.0 1086950.0 12166.0
560515.0 1083685.0 12172.0
559513.0 1086730.0 12080.0
559909.0 1084966.0 12117.0
559871.0 1083966.0 12110.0
559095.0 1085771.0 12059.0
558154.0 1081023.0 12107.0
558231.0 1080608.0 12107.0
556990.0 1084609.0 12069.0
557916.0 1080969.0 12178.0
558004.0 1080583.0 12119.0
558102.0 1080155.0 12170.0
556620.0 1085066.0 12129.0
556776.0 1084704.0 12225.0
556485.0 1084864.0 12218.0
558290.0 1076062.0 12176.0
558222.0 1072783.0 12100.0
555285.0 1082721.0 12158.0
555517.0 1081809.0 12202.0
554452.0 1084975.0 12235.0
554152.0 1084793.0 12234.0
555958.0 1074080.0 12177.0
556052.0 1073712.0 12122.0
556925.0 1070108.0 12059.0
554524.0 1078224.0 12152.0
555437.0 1074284.0 12235.0
555669.0 1073465.0 12162.0
555037.0 1074682.0 12048.0
555234.0 1074290.0 12157.0
555029.0 1072846.0 12122.0
553739.0 1077707.0 12233.0
553210.0 1078723.0 12103.0
552624.0 1078537.0 12100.0
552260.0 1077601.0 12191.0
554202.0 1068831.0 12067.0
554327.0 1068416.0 12083.0
553657.0 1068885.0 12179.0
552754.0 1069499.0 12087.0
552144.0 1070875.0 12092.0
552257.0 1070461.0 12141.0
552774.0 1068737.0 12060.0
551971.0 1070672.0 12200.0
552323.0 1069533.0 12223.0
551965.0 1069638.0 12146.0
554346.0 1085742.0 12199.0
559349.0 1087173.0 12163.0
559828.0 1087117.0 12230.0
559476.0 1086994.0 12203.0
554199.0 1084996.0 12108.0
559874.0 1086923.0 12173.0
559509.0 1086814.0 12124.0
554113.0 1084693.0 12218.0
560190.0 1086790.0 12173.0
554116.0 1084474.0 12170.0
559619.0 1086059.0 12096.0
556723.0 1084921.0 12096.0
558857.0 1085371.0 12208.0
558740.0 1084739.0 12114.0
558445.0 1084640.0 12108.0
554788.0 1083279.0 12171.0
557420.0 1083960.0 12161.0
560030.0 1084694.0 12096.0
555950.0 1083185.0 12098.0
560620.0 1084650.0 12082.0
561536.0 1084437.0 12205.0
560033.0 1083922.0 12074.0
555588.0 1081892.0 12227.0
561090.0 1083372.0 12149.0
555697.0 1081145.0 12132.0
558065.0 1081109.0 12114.0
561141.0 1081925.0 12183.0
558216.0 1080890.0 12083.0
561546.0 1081788.0 12217.0
558190.0 1080613.0 12092.0
553314.0 1078708.0 12168.0
557910.0 1080220.0 12174.0
554628.0 1078990.0 12085.0
553152.0 1078484.0 12050.0
561903.0 1081342.0 12186.0
555552.0 1078970.0 12151.0
552331.0 1077780.0 12154.0
554604.0 1078359.0 12113.0
552760.0 1077675.0 12130.0
552393.0 1077541.0 12053.0
552985.0 1077433.0 12193.0
552763.0 1077111.0 12195.0
554367.0 1077473.0 12137.0
554356.0 1077230.0 12115.0
554903.0 1074405.0 12154.0
555275.0 1074312.0 12170.0
555531.0 1073928.0 12183.0
555716.0 1073699.0 12183.0
552020.0 1070990.0 12062.0
551963.0 1070703.0 12163.0
557814.0 1072503.0 12152.0
557763.0 1072315.0 12130.0
552076.0 1070240.0 12079.0
559417.0 1072641.0 12052.0
559833.0 1072429.0 12222.0
555446.0 1070264.0 12141.0
556546.0 1070305.0 12062.0
554222.0 1069089.0 12101.0
554120.0 1068781.0 12077.0
554079.0 1068452.0 12074.0
552739.0 1077810.0 12034.0
552998.0 1078375.0 11866.0
553010.0 1078214.0 11931.0
553177.0 1079082.0 11895.0
553201.0 1078995.0 11914.0
553352.0 1079296.0 11886.0
554208.0 1084363.0 11929.0
552110.0 1071203.0 11953.0
553275.0 1078366.0 12027.0
552181.0 1069858.0 11982.0
552349.0 1070969.0 11958.0
552329.0 1069845.0 11980.0
552530.0 1070754.0 11876.0
554297.0 1079205.0 12023.0
554278.0 1078611.0 12030.0
554473.0 1078368.0 11861.0
555617.0 1085349.0 11842.0
552917.0 1069334.0 11973.0
554567.0 1078322.0 11964.0
553022.0 1069387.0 11977.0
553086.0 1069312.0 12037.0
555254.0 1080988.0 12035.0
555859.0 1084935.0 12025.0
553152.0 1068901.0 11984.0
554720.0 1075252.0 11847.0
555708.0 1080872.0 11982.0
554737.0 1074497.0 11999.0
556121.0 1082160.0 11981.0
555650.0 1078518.0 12029.0
553900.0 1068240.0 11950.0
554048.0 1069223.0 11959.0
557577.0 1085682.0 11904.0
556804.0 1080659.0 12024.0
556206.0 1073959.0 11886.0
558852.0 1085054.0 11919.0
559347.0 1086382.0 11964.0
558437.0 1080725.0 12029.0
558626.0 1080617.0 11944.0
557175.0 1070459.0 11858.0
560070.0 1084837.0 11873.0
559379.0 1080493.0 11856.0
560262.0 1084444.0 11937.0
558068.0 1072889.0 11961.0
560388.0 1084847.0 12032.0
560721.0 1085432.0 11897.0
561007.0 1083769.0 11937.0
561872.0 1080965.0 11893.0
562089.0 1081024.0 12023.0
557304.0 1070347.0 11993.0
557417.0 1070676.0 11983.0
556491.0 1069963.0 11966.0
556404.0 1070098.0 12033.0
553866.0 1067984.0 11919.0
553795.0 1068323.0 11864.0
556473.0 1071059.0 11898.0
558232.0 1073030.0 11867.0
553428.0 1068657.0 11961.0
553982.0 1069170.0 11909.0
553201.0 1068652.0 11953.0
554155.0 1069958.0 11939.0
553036.0 1069218.0 12026.0
554229.0 1070389.0 11974.0
553279.0 1069584.0 11923.0
552874.0 1069425.0 11850.0
552567.0 1069757.0 11884.0
552276.0 1069722.0 11982.0
556345.0 1073783.0 11951.0
552591.0 1070651.0 11865.0
552474.0 1070783.0 11903.0
552447.0 1071200.0 11919.0
552211.0 1071065.0 11902.0
561747.0 1080999.0 11896.0
561689.0 1081111.0 11957.0
554642.0 1074577.0 11985.0
554554.0 1074612.0 11910.0
554995.0 1075087.0 12023.0
554666.0 1074920.0 11936.0
561179.0 1081443.0 12025.0
554698.0 1075102.0 11877.0
556210.0 1076642.0 12011.0
561077.0 1081464.0 11962.0
554267.0 1074983.0 11890.0
559251.0 1080477.0 11867.0
562189.0 1083448.0 11840.0
558738.0 1080249.0 11851.0
559063.0 1080779.0 11945.0
558504.0 1080425.0 11936.0
561465.0 1083352.0 11862.0
558666.0 1080719.0 11958.0
561382.0 1083405.0 11866.0
556724.0 1079247.0 12008.0
555719.0 1078409.0 11996.0
556859.0 1079390.0 11886.0
555447.0 1078358.0 11947.0
561003.0 1083745.0 11924.0
555374.0 1078618.0 12036.0
554770.0 1078085.0 11849.0
555259.0 1078540.0 11950.0
554775.0 1078299.0 11993.0
554826.0 1078538.0 12007.0
554984.0 1079223.0 11872.0
560174.0 1084257.0 11969.0
560172.0 1084694.0 11933.0
560632.0 1085223.0 11990.0
560354.0 1085102.0 11881.0
553046.0 1078423.0 11901.0
555610.0 1080882.0 12031.0
553202.0 1079004.0 11922.0
555953.0 1081716.0 12028.0
553328.0 1079218.0 11852.0
559023.0 1084637.0 11868.0
552899.0 1079137.0 11985.0
555927.0 1081991.0 11976.0
558813.0 1085059.0 11941.0
559314.0 1085619.0 11946.0
559315.0 1085784.0 12022.0
559311.0 1086114.0 12022.0
555531.0 1082668.0 11872.0
558322.0 1085639.0 12018.0
557531.0 1085580.0 11911.0
556545.0 1085058.0 12032.0
556397.0 1085075.0 12005.0
556290.0 1085271.0 11848.0
554414.0 1084204.0 12028.0
554385.0 1084260.0 11867.0
554758.0 1084978.0 11882.0
554197.0 1084806.0 11973.0
554662.0 1085215.0 11991.0
561401.0 1083131.0 11880.0
560635.0 1085319.0 12012.0
561124.0 1083238.0 11996.0
561595.0 1081077.0 11859.0
560392.0 1084945.0 11969.0
559707.0 1086469.0 11843.0
560163.0 1084871.0 11981.0
560227.0 1084464.0 11905.0
559973.0 1084541.0 12020.0
560056.0 1084126.0 11978.0
559176.0 1086578.0 11845.0
558881.0 1085224.0 11959.0
558510.0 1085168.0 11963.0
558626.0 1084382.0 11853.0
558087.0 1083574.0 11971.0
558747.0 1080662.0 11859.0
558321.0 1081559.0 12005.0
558497.0 1080709.0 11976.0
558559.0 1080241.0 11850.0
556326.0 1085290.0 12037.0
559320.0 1072755.0 11948.0
555988.0 1085393.0 11908.0
556160.0 1081982.0 11857.0
558539.0 1072386.0 11906.0
555737.0 1082902.0 11898.0
556007.0 1082114.0 12028.0
554521.0 1085766.0 11895.0
554621.0 1085312.0 11906.0
555325.0 1082245.0 11966.0
554217.0 1085787.0 12013.0
554274.0 1085376.0 11933.0
554447.0 1084582.0 11942.0
555340.0 1079160.0 11932.0
555470.0 1078746.0 12016.0
556048.0 1076214.0 11976.0
553610.0 1085428.0 11935.0
553965.0 1084073.0 11969.0
554962.0 1079242.0 11863.0
555108.0 1078818.0 11964.0
555236.0 1078377.0 11853.0
556300.0 1073583.0 11899.0
554735.0 1078994.0 11857.0
554846.0 1078541.0 11953.0
554925.0 1078186.0 11916.0
556505.0 1069972.0 12034.0
554890.0 1075078.0 11908.0
555319.0 1073427.0 11957.0
554747.0 1074793.0 11951.0
554902.0 1074387.0 12007.0
554499.0 1074923.0 11884.0
554651.0 1074547.0 11974.0
553358.0 1078886.0 11995.0
553054.0 1079168.0 11953.0
554578.0 1072703.0 12013.0
552820.0 1078923.0 12017.0
552872.0 1078515.0 12008.0
554011.0 1070646.0 11850.0
553673.0 1069440.0 11994.0
553798.0 1069061.0 11956.0
553876.0 1068668.0 11926.0
553973.0 1068249.0 11898.0
553629.0 1068400.0 11870.0
553816.0 1068022.0 11933.0
553291.0 1068745.0 11933.0
553464.0 1068384.0 11950.0
552441.0 1071437.0 11935.0
552516.0 1071006.0 11850.0
552950.0 1069455.0 11940.0
553006.0 1069013.0 11843.0
553154.0 1068660.0 11938.0
552302.0 1071194.0 11992.0
552369.0 1070752.0 11912.0
552054.0 1071312.0 11993.0
552418.0 1069576.0 11970.0
551800.0 1071070.0 11968.0
552009.0 1070233.0 11943.0
555840.0 1086749.0 11944.0
553572.0 1085612.0 11901.0
554729.0 1085732.0 11911.0
554400.0 1085640.0 11961.0
554602.0 1085409.0 12031.0
553899.0 1085187.0 11961.0
554564.0 1085232.0 11917.0
556213.0 1085565.0 11983.0
554720.0 1085069.0 11884.0
554416.0 1084911.0 12014.0
559802.0 1086709.0 11955.0
559474.0 1086585.0 12008.0
554442.0 1084681.0 11962.0
559276.0 1086272.0 12012.0
556621.0 1085215.0 11961.0
554327.0 1084351.0 12035.0
553996.0 1084219.0 12009.0
559253.0 1085984.0 11884.0
554192.0 1084010.0 11971.0
560576.0 1085203.0 12019.0
558755.0 1084594.0 11872.0
560407.0 1084902.0 11930.0
557434.0 1083761.0 11881.0
556289.0 1083352.0 12034.0
555526.0 1082782.0 11996.0
555184.0 1082637.0 11902.0
560048.0 1084224.0 11967.0
561890.0 1084596.0 11955.0
562060.0 1084450.0 11977.0
556228.0 1082031.0 11886.0
555861.0 1081583.0 12014.0
561102.0 1083225.0 11972.0
558222.0 1081810.0 11923.0
558292.0 1081517.0 12034.0
552992.0 1079159.0 12024.0
558545.0 1081032.0 12024.0
553081.0 1079032.0 11966.0
561166.0 1081766.0 11936.0
558549.0 1080795.0 11968.0
558570.0 1080527.0 11907.0
555663.0 1079474.0 11878.0
555316.0 1079300.0 11876.0
552769.0 1078341.0 11992.0
556893.0 1079611.0 11895.0
555111.0 1078973.0 11911.0
554769.0 1078791.0 11997.0
562038.0 1081138.0 12006.0
561640.0 1081042.0 11847.0
556827.0 1079250.0 12003.0
555364.0 1078674.0 12013.0
554967.0 1078564.0 11935.0
562252.0 1080985.0 11884.0
555804.0 1078611.0 11939.0
554753.0 1078201.0 11942.0
555820.0 1076910.0 11892.0
556367.0 1076458.0 12010.0
554669.0 1075356.0 11840.0
558761.0 1076506.0 11965.0
554657.0 1074999.0 11878.0
555021.0 1074781.0 12021.0
554652.0 1074679.0 11932.0
554582.0 1074409.0 11920.0
555128.0 1074137.0 11881.0
555166.0 1073846.0 12037.0
556340.0 1073760.0 11840.0
556166.0 1073348.0 11892.0
554723.0 1072772.0 11980.0
552442.0 1071695.0 11870.0
554393.0 1072189.0 11981.0
552570.0 1071515.0 11839.0
552256.0 1071341.0 12022.0
551907.0 1071185.0 12031.0
552349.0 1071142.0 11989.0
552307.0 1070910.0 11972.0
552361.0 1070676.0 11905.0
553814.0 1070632.0 12013.0
552559.0 1069880.0 12030.0
552165.0 1069755.0 11995.0
553161.0 1069807.0 11964.0
552806.0 1069644.0 12016.0
552430.0 1069613.0 11879.0
552857.0 1069415.0 11841.0
552952.0 1069027.0 12032.0
557054.0 1070202.0 12031.0
553390.0 1068544.0 11920.0
553852.0 1068157.0 11879.0
554155.0 1085457.0 11684.0
551837.0 1071140.0 11775.0
554017.0 1084104.0 11807.0
554295.0 1085766.0 11735.0
554395.0 1085398.0 11688.0
554388.0 1084287.0 11827.0
554478.0 1085169.0 11810.0
554654.0 1085062.0 11803.0
554768.0 1084712.0 11795.0
555389.0 1085424.0 11695.0
552751.0 1069495.0 11710.0
555515.0 1085490.0 11823.0
554069.0 1075051.0 11715.0
554777.0 1079380.0 11799.0
555981.0 1086668.0 11710.0
554152.0 1074961.0 11736.0
554904.0 1079411.0 11803.0
555100.0 1080276.0 11724.0
553394.0 1070377.0 11657.0
553795.0 1072613.0 11813.0
554235.0 1074727.0 11683.0
554794.0 1077851.0 11674.0
555161.0 1079931.0 11650.0
553437.0 1069369.0 11823.0
556350.0 1085506.0 11706.0
553611.0 1069368.0 11803.0
554591.0 1074263.0 11641.0
555281.0 1078054.0 11728.0
553673.0 1068650.0 11791.0
556731.0 1085342.0 11677.0
554128.0 1070048.0 11746.0
554630.0 1072464.0 11698.0
556899.0 1085247.0 11740.0
555996.0 1076442.0 11671.0
559139.0 1086130.0 11691.0
558983.0 1084466.0 11707.0
559170.0 1085619.0 11723.0
559358.0 1086755.0 11761.0
559051.0 1084502.0 11799.0
559419.0 1085456.0 11736.0
556869.0 1070657.0 11670.0
558776.0 1080302.0 11819.0
557005.0 1070744.0 11717.0
559597.0 1083390.0 11676.0
559124.0 1080586.0 11836.0
559678.0 1083528.0 11769.0
560744.0 1084729.0 11718.0
560781.0 1084290.0 11680.0
561876.0 1083208.0 11707.0
561998.0 1083105.0 11723.0
562067.0 1083303.0 11785.0
562251.0 1084338.0 11760.0
559573.0 1072873.0 11810.0
559489.0 1072788.0 11786.0
557069.0 1070451.0 11757.0
557020.0 1070568.0 11743.0
556795.0 1070653.0 11673.0
556588.0 1070739.0 11686.0
553654.0 1068572.0 11766.0
554215.0 1069204.0 11805.0
553761.0 1069142.0 11831.0
553986.0 1069454.0 11683.0
552683.0 1069607.0 11811.0
554425.0 1072383.0 11790.0
552672.0 1071115.0 11747.0
551910.0 1070992.0 11813.0
552401.0 1071482.0 11811.0
551693.0 1070890.0 11678.0
554820.0 1073972.0 11676.0
554426.0 1074988.0 11837.0
555986.0 1076428.0 11705.0
554334.0 1075133.0 11763.0
554018.0 1074982.0 11655.0
562010.0 1083372.0 11682.0
558599.0 1080224.0 11781.0
555568.0 1077538.0 11672.0
561185.0 1084159.0 11770.0
560727.0 1083909.0 11722.0
560711.0 1084032.0 11817.0
560995.0 1084725.0 11668.0
561498.0 1085270.0 11810.0
560834.0 1084708.0 11674.0
555179.0 1079616.0 11710.0
554659.0 1079346.0 11807.0
555174.0 1079807.0 11685.0
554647.0 1079513.0 11731.0
555204.0 1080077.0 11686.0
553001.0 1078584.0 11779.0
552715.0 1078384.0 11767.0
558957.0 1084408.0 11675.0
553254.0 1079215.0 11833.0
558751.0 1084479.0 11818.0
558976.0 1084701.0 11759.0
555999.0 1082143.0 11746.0
558958.0 1085061.0 11800.0
557907.0 1084199.0 11660.0
558895.0 1085203.0 11665.0
559044.0 1085487.0 11650.0
559174.0 1086099.0 11775.0
556355.0 1085440.0 11718.0
555528.0 1084793.0 11658.0
556135.0 1085484.0 11716.0
555530.0 1084973.0 11677.0
556029.0 1085464.0 11725.0
554569.0 1084297.0 11826.0
555568.0 1085174.0 11759.0
554891.0 1084840.0 11820.0
555490.0 1085322.0 11836.0
555336.0 1085375.0 11664.0
554399.0 1085195.0 11786.0
554342.0 1085381.0 11701.0
555944.0 1086848.0 11689.0
