586963.0 1139067.0 9256.0
586985.0 1139022.0 9291.0
587037.0 1138994.0 9286.0
584390.0 1137340.0 9167.0
584457.0 1136592.0 9057.0
585640.0 1136586.0 9146.0
586188.0 1140133.0 9122.0
586337.0 1140036.0 9058.0
586529.0 1139926.0 9142.0
586246.0 1137307.0 9104.0
586404.0 1137791.0 9190.0
587248.0 1136836.0 9122.0
587659.0 1139541.0 9190.0
587220.0 1136247.0 9234.0
587745.0 1139457.0 9192.0
587875.0 1139438.0 9139.0
589343.0 1136514.0 9086.0
587828.0 1137082.0 9229.0
587368.0 1136873.0 9206.0
587074.0 1136934.0 9062.0
587557.0 1137373.0 9095.0
587178.0 1137139.0 9049.0
586122.0 1136415.0 9194.0
585940.0 1136475.0 9218.0
585639.0 1136572.0 9122.0
586339.0 1137502.0 9167.0
586339.0 1137721.0 9219.0
586459.0 1138017.0 9114.0
586933.0 1138603.0 9149.0
584409.0 1136649.0 9117.0
586765.0 1138874.0 9225.0
586644.0 1139927.0 9125.0
586463.0 1140059.0 9039.0
587934.0 1139270.0 9052.0
587670.0 1139477.0 9220.0
587484.0 1138925.0 9172.0
586586.0 1139874.0 9073.0
586403.0 1139820.0 9162.0
587104.0 1136818.0 9160.0
586014.0 1139234.0 9117.0
586314.0 1138001.0 9159.0
585890.0 1136449.0 9131.0
585967.0 1136030.0 9093.0
585628.0 1140501.0 9090.0
584898.0 1140243.0 9039.0
585699.0 1140003.0 9187.0
586472.0 1139973.0 9144.0
586294.0 1139115.0 9230.0
587753.0 1139360.0 9158.0
586584.0 1138910.0 9187.0
587285.0 1138873.0 9176.0
586932.0 1138770.0 9122.0
586352.0 1137895.0 9162.0
585426.0 1136981.0 9156.0
587809.0 1137343.0 9136.0
585922.0 1136664.0 9041.0
587259.0 1136814.0 9097.0
586216.0 1136423.0 9162.0
585893.0 1136312.0 9128.0
586323.0 1135813.0 9203.0
586253.0 1135549.0 9200.0
589296.0 1136465.0 9219.0
589280.0 1136228.0 9159.0
585022.0 1140275.0 8954.0
585276.0 1140252.0 8902.0
585653.0 1140472.0 8872.0
585890.0 1136881.0 8991.0
586492.0 1140088.0 9020.0
586727.0 1138403.0 9011.0
587070.0 1137014.0 8984.0
588482.0 1137978.0 8920.0
588548.0 1137775.0 8913.0
588606.0 1137672.0 8910.0
588735.0 1137823.0 8936.0
589479.0 1136471.0 9025.0
589721.0 1136291.0 8990.0
588394.0 1137481.0 8935.0
588875.0 1137919.0 8913.0
588551.0 1137860.0 8926.0
588540.0 1138058.0 8914.0
588106.0 1137803.0 8851.0
588552.0 1138262.0 8957.0
588337.0 1138172.0 8953.0
588269.0 1138275.0 8851.0
585730.0 1136693.0 9010.0
586662.0 1138343.0 8860.0
585722.0 1140261.0 8967.0
585137.0 1140246.0 8924.0
584580.0 1139910.0 8853.0
585090.0 1140300.0 8946.0
589366.0 1136548.0 9003.0
588753.0 1137967.0 8994.0
588300.0 1138583.0 8872.0
588466.0 1138167.0 8971.0
588544.0 1137737.0 8930.0
588224.0 1137999.0 8930.0
588279.0 1137558.0 8870.0
587954.0 1137845.0 8881.0
588070.0 1137444.0 9007.0
587725.0 1137587.0 8982.0
586896.0 1138626.0 9005.0
587219.0 1137400.0 9033.0
586012.0 1139891.0 9001.0
585754.0 1139991.0 8983.0
585207.0 1140232.0 8980.0
584952.0 1140139.0 8889.0
585720.0 1136859.0 8879.0
584574.0 1140022.0 8939.0
584317.0 1139996.0 8897.0
585066.0 1140119.0 8840.0
587984.0 1139176.0 9031.0
586558.0 1138677.0 8966.0
587862.0 1138543.0 8940.0
588117.0 1138403.0 8846.0
587793.0 1138251.0 8876.0
588552.0 1138215.0 8915.0
588191.0 1138097.0 8905.0
584662.0 1136778.0 8999.0
588608.0 1137955.0 8925.0
588246.0 1137850.0 8891.0
585658.0 1136905.0 8910.0
588831.0 1137791.0 8838.0
587021.0 1137125.0 8911.0
588745.0 1137411.0 8940.0
587358.0 1136327.0 8981.0
589542.0 1136394.0 8913.0
584766.0 1140037.0 8746.0
584968.0 1139930.0 8640.0
587567.0 1137722.0 8717.0
587908.0 1137959.0 8825.0
589124.0 1137837.0 8737.0
588038.0 1137316.0 8729.0
588055.0 1137546.0 8777.0
587786.0 1137618.0 8835.0
587770.0 1137766.0 8775.0
587025.0 1137278.0 8794.0
587554.0 1137727.0 8684.0
588020.0 1138224.0 8823.0
587773.0 1138060.0 8674.0
586657.0 1137179.0 8666.0
585926.0 1136951.0 8809.0
587410.0 1138354.0 8776.0
585837.0 1139610.0 8694.0
585547.0 1140319.0 8776.0
584642.0 1139798.0 8761.0
584368.0 1139826.0 8823.0
588454.0 1138754.0 8671.0
588797.0 1137527.0 8819.0
587536.0 1137981.0 8675.0
586548.0 1138477.0 8699.0
586793.0 1137248.0 8653.0
585563.0 1140375.0 8743.0
584501.0 1140226.0 8702.0
584655.0 1140000.0 8711.0
585669.0 1139884.0 8721.0
585861.0 1139680.0 8829.0
588446.0 1138521.0 8770.0
587846.0 1137800.0 8718.0
588490.0 1137682.0 8803.0
588125.0 1137593.0 8820.0
587664.0 1136495.0 8769.0
585140.0 1139739.0 8567.0
585818.0 1139517.0 8526.0
586619.0 1138279.0 8458.0
587035.0 1137932.0 8471.0
587373.0 1138015.0 8630.0
588571.0 1138614.0 8629.0
586751.0 1137314.0 8546.0
587219.0 1137788.0 8610.0
587490.0 1138121.0 8578.0
586512.0 1137285.0 8445.0
586978.0 1137818.0 8538.0
585067.0 1139798.0 8518.0
584580.0 1139944.0 8590.0
584518.0 1140201.0 8453.0
586933.0 1137781.0 8554.0
585998.0 1138358.0 8538.0
585785.0 1137150.0 8588.0
584976.0 1139742.0 8594.0
584882.0 1139896.0 8606.0
586430.0 1138437.0 8557.0
588785.0 1138791.0 8465.0
587046.0 1138069.0 8552.0
587400.0 1137975.0 8581.0
586738.0 1137339.0 8606.0
589113.0 1137996.0 8536.0
589025.0 1137647.0 8595.0
584769.0 1138406.0 8279.0
584822.0 1138180.0 8274.0
584936.0 1138313.0 8295.0
585308.0 1137892.0 8241.0
585601.0 1139840.0 8297.0
585604.0 1137796.0 8393.0
585934.0 1138659.0 8322.0
586058.0 1138557.0 8369.0
586362.0 1137250.0 8413.0
586478.0 1137309.0 8373.0
586993.0 1137955.0 8436.0
585645.0 1137841.0 8292.0
585423.0 1137823.0 8274.0
585872.0 1138816.0 8331.0
585797.0 1138902.0 8259.0
584790.0 1138279.0 8302.0
585735.0 1139120.0 8253.0
585861.0 1140026.0 8278.0
587224.0 1138834.0 8433.0
585706.0 1139605.0 8416.0
585840.0 1138761.0 8290.0
585812.0 1137693.0 8320.0
585109.0 1139798.0 8358.0
585476.0 1138009.0 8313.0
585631.0 1137576.0 8435.0
585222.0 1138013.0 8251.0
584339.0 1137327.0 8240.0
585270.0 1139877.0 8306.0
584923.0 1139750.0 8315.0
585795.0 1139568.0 8285.0
586070.0 1138707.0 8401.0
585547.0 1137916.0 8329.0
585563.0 1137664.0 8322.0
586560.0 1137239.0 8281.0
584219.0 1137440.0 8220.0
584329.0 1137213.0 8197.0
584503.0 1138033.0 8125.0
584481.0 1137072.0 8090.0
584615.0 1138072.0 8212.0
584620.0 1137379.0 8124.0
585014.0 1139466.0 8041.0
585184.0 1140408.0 8064.0
585317.0 1140269.0 8064.0
585839.0 1137593.0 8131.0
586101.0 1137454.0 8177.0
586253.0 1138329.0 8181.0
587367.0 1139043.0 8186.0
588432.0 1138394.0 8153.0
589111.0 1137126.0 8051.0
589844.0 1136490.0 8149.0
589442.0 1136883.0 8080.0
588950.0 1138621.0 8174.0
588681.0 1138519.0 8130.0
588467.0 1138457.0 8039.0
587397.0 1138594.0 8052.0
586026.0 1137673.0 8105.0
587473.0 1139051.0 8123.0
584306.0 1137099.0 8120.0
585285.0 1137936.0 8175.0
584932.0 1137867.0 8150.0
584786.0 1137918.0 8168.0
584664.0 1138014.0 8222.0
585698.0 1138919.0 8205.0
585438.0 1139598.0 8142.0
585137.0 1140297.0 8094.0
588676.0 1138263.0 8140.0
585651.0 1140275.0 8155.0
585735.0 1139192.0 8211.0
584989.0 1137933.0 8121.0
584523.0 1137811.0 8115.0
585388.0 1139739.0 8174.0
585037.0 1139674.0 8086.0
584636.0 1138205.0 8177.0
587438.0 1138966.0 8038.0
585287.0 1138142.0 8150.0
586263.0 1138220.0 8215.0
586602.0 1138139.0 8135.0
585891.0 1137806.0 8235.0
585992.0 1137527.0 8216.0
588850.0 1138392.0 8057.0
589328.0 1137089.0 8078.0
584381.0 1136039.0 7910.0
584884.0 1137301.0 7956.0
585060.0 1137551.0 7953.0
585204.0 1137581.0 8005.0
585994.0 1137444.0 8032.0
586518.0 1137922.0 7958.0
586693.0 1138037.0 7920.0
587525.0 1138354.0 7915.0
587806.0 1138250.0 7967.0
588036.0 1138334.0 7963.0
588078.0 1138239.0 7935.0
588360.0 1137244.0 7896.0
588546.0 1137065.0 7855.0
588691.0 1136989.0 7866.0
588978.0 1138799.0 7986.0
589059.0 1138765.0 8033.0
589123.0 1138750.0 7923.0
588948.0 1136825.0 7882.0
589242.0 1138682.0 7981.0
589670.0 1138700.0 7907.0
589523.0 1136466.0 7880.0
590143.0 1138217.0 7855.0
589799.0 1136589.0 7905.0
589417.0 1136530.0 7900.0
589139.0 1136773.0 7948.0
589069.0 1136840.0 7948.0
588900.0 1136834.0 7862.0
588855.0 1137138.0 7942.0
588662.0 1137214.0 7921.0
589087.0 1138538.0 8034.0
589155.0 1138911.0 7989.0
589045.0 1138908.0 7963.0
588323.0 1138404.0 7962.0
588354.0 1138510.0 7872.0
587608.0 1138291.0 7839.0
584430.0 1135785.0 7838.0
585877.0 1137239.0 7951.0
584190.0 1135875.0 7894.0
584133.0 1136084.0 7994.0
584754.0 1136795.0 7854.0
587671.0 1139549.0 8003.0
584590.0 1136772.0 7856.0
585054.0 1137234.0 7865.0
587453.0 1139493.0 7840.0
584458.0 1136930.0 7967.0
585029.0 1137387.0 7914.0
584835.0 1137480.0 8015.0
584413.0 1137979.0 8033.0
585721.0 1139426.0 8030.0
584830.0 1139668.0 8004.0
589556.0 1138707.0 7910.0
589213.0 1138917.0 7914.0
589712.0 1136757.0 7881.0
589859.0 1136368.0 7917.0
589036.0 1138538.0 7971.0
588765.0 1138598.0 7948.0
588811.0 1138215.0 7864.0
589024.0 1137337.0 7888.0
589164.0 1136926.0 7955.0
588791.0 1137313.0 7932.0
588865.0 1136898.0 7860.0
588318.0 1138333.0 7999.0
588592.0 1137053.0 7861.0
587340.0 1138976.0 8008.0
587414.0 1138567.0 7975.0
586284.0 1137274.0 7968.0
585961.0 1137439.0 7882.0
585188.0 1137560.0 7968.0
585002.0 1137505.0 7949.0
584670.0 1136627.0 7841.0
584294.0 1136848.0 7849.0
585412.0 1139560.0 8012.0
585034.0 1139460.0 7855.0
586093.0 1139494.0 7997.0
587518.0 1139411.0 7875.0
587359.0 1138719.0 8018.0
589113.0 1139046.0 7922.0
587316.0 1138444.0 7963.0
586248.0 1138024.0 7874.0
585114.0 1137619.0 7911.0
584101.0 1137216.0 8003.0
589464.0 1138934.0 7920.0
589118.0 1138851.0 7861.0
588784.0 1138699.0 7855.0
588066.0 1138426.0 7851.0
587691.0 1138286.0 7887.0
585607.0 1137489.0 8010.0
584123.0 1137010.0 7844.0
589595.0 1138735.0 7855.0
589217.0 1138596.0 7865.0
588496.0 1138333.0 7925.0
586220.0 1137493.0 7936.0
585854.0 1137384.0 7849.0
584384.0 1136829.0 7841.0
584282.0 1136172.0 7885.0
588468.0 1137336.0 7861.0
589086.0 1137267.0 7963.0
588735.0 1137156.0 7975.0
588969.0 1137023.0 7940.0
589173.0 1136908.0 8012.0
589761.0 1136879.0 7877.0
589441.0 1136776.0 7890.0
583887.0 1139109.0 7742.0
583709.0 1136058.0 7740.0
583883.0 1136145.0 7829.0
584022.0 1137014.0 7744.0
583975.0 1135866.0 7742.0
584133.0 1136821.0 7786.0
584190.0 1136368.0 7826.0
584323.0 1136302.0 7809.0
584855.0 1139665.0 7808.0
584750.0 1136397.0 7691.0
585085.0 1136737.0 7827.0
586949.0 1138112.0 7737.0
587215.0 1138278.0 7783.0
588040.0 1138553.0 7786.0
589912.0 1138308.0 7753.0
590163.0 1138498.0 7730.0
590043.0 1137009.0 7649.0
590333.0 1138301.0 7715.0
590483.0 1138435.0 7642.0
590246.0 1136479.0 7655.0
590170.0 1136713.0 7770.0
589115.0 1136476.0 7710.0
590054.0 1137920.0 7770.0
589915.0 1138136.0 7793.0
589695.0 1138115.0 7666.0
590192.0 1138551.0 7721.0
588307.0 1137043.0 7732.0
589972.0 1138570.0 7704.0
589891.0 1138669.0 7677.0
589398.0 1138426.0 7741.0
588885.0 1138841.0 7789.0
588263.0 1138415.0 7780.0
588156.0 1138525.0 7817.0
588159.0 1138666.0 7640.0
587285.0 1138230.0 7789.0
585398.0 1136700.0 7754.0
585142.0 1136745.0 7810.0
586634.0 1138043.0 7712.0
583655.0 1135529.0 7725.0
585289.0 1136980.0 7738.0
586354.0 1137984.0 7763.0
583798.0 1135881.0 7808.0
584280.0 1136318.0 7800.0
585285.0 1137220.0 7796.0
583673.0 1135907.0 7726.0
584134.0 1136347.0 7788.0
583975.0 1136368.0 7723.0
583920.0 1136500.0 7677.0
587397.0 1139695.0 7766.0
584090.0 1136937.0 7815.0
583014.0 1137994.0 7724.0
583606.0 1139063.0 7657.0
590097.0 1138629.0 7712.0
589795.0 1138788.0 7805.0
589873.0 1138406.0 7717.0
589965.0 1138010.0 7732.0
589569.0 1138205.0 7660.0
590009.0 1136515.0 7723.0
589448.0 1137622.0 7718.0
588875.0 1138903.0 7774.0
589135.0 1137661.0 7676.0
589493.0 1136526.0 7798.0
588368.0 1138638.0 7753.0
588123.0 1138654.0 7698.0
588290.0 1137224.0 7789.0
588419.0 1136400.0 7641.0
587725.0 1138344.0 7800.0
587438.0 1138207.0 7834.0
586122.0 1139776.0 7679.0
585456.0 1137100.0 7639.0
584766.0 1139252.0 7717.0
585028.0 1137044.0 7783.0
584848.0 1136837.0 7773.0
584366.0 1136422.0 7782.0
584415.0 1135983.0 7663.0
583795.0 1137200.0 7643.0
584042.0 1136331.0 7761.0
584142.0 1135886.0 7710.0
583595.0 1136504.0 7638.0
583789.0 1136131.0 7787.0
583428.0 1139430.0 7725.0
585754.0 1139454.0 7831.0
585028.0 1139231.0 7684.0
582978.0 1138134.0 7675.0
587837.0 1139569.0 7829.0
587989.0 1138725.0 7781.0
583466.0 1136769.0 7740.0
585122.0 1137121.0 7793.0
584770.0 1136968.0 7800.0
584002.0 1136698.0 7784.0
583598.0 1136593.0 7667.0
590151.0 1138704.0 7720.0
589784.0 1138560.0 7745.0
585086.0 1136867.0 7697.0
584740.0 1136696.0 7783.0
584373.0 1136543.0 7836.0
583987.0 1136434.0 7754.0
583607.0 1136325.0 7673.0
589987.0 1138332.0 7697.0
583892.0 1136093.0 7718.0
588801.0 1137547.0 7720.0
588318.0 1137092.0 7735.0
588578.0 1136948.0 7782.0
588761.0 1136833.0 7778.0
589106.0 1136710.0 7792.0
589812.0 1136630.0 7832.0
589454.0 1136533.0 7726.0
582867.0 1138033.0 7623.0
583088.0 1137879.0 7569.0
583229.0 1138257.0 7566.0
583385.0 1139217.0 7631.0
583599.0 1138138.0 7525.0
583740.0 1138984.0 7518.0
583863.0 1138105.0 7487.0
583892.0 1137105.0 7602.0
584088.0 1138124.0 7495.0
584439.0 1139559.0 7605.0
584767.0 1139409.0 7461.0
585021.0 1139020.0 7487.0
584716.0 1136266.0 7532.0
585208.0 1139038.0 7599.0
585416.0 1139214.0 7444.0
585617.0 1139269.0 7597.0
585733.0 1137267.0 7446.0
586436.0 1136801.0 7496.0
587304.0 1140319.0 7454.0
588038.0 1137201.0 7451.0
588075.0 1137022.0 7522.0
588188.0 1136978.0 7611.0
588501.0 1138785.0 7623.0
588988.0 1137884.0 7498.0
588810.0 1136557.0 7634.0
588902.0 1136380.0 7450.0
589480.0 1138191.0 7621.0
590277.0 1136308.0 7550.0
589776.0 1135960.0 7459.0
590034.0 1136893.0 7610.0
589113.0 1136196.0 7445.0
588739.0 1136191.0 7514.0
588677.0 1136305.0 7582.0
588449.0 1136240.0 7443.0
588447.0 1136505.0 7513.0
588268.0 1136617.0 7481.0
589437.0 1138025.0 7560.0
587906.0 1136737.0 7475.0
588863.0 1137693.0 7631.0
589381.0 1138199.0 7590.0
587961.0 1136948.0 7440.0
588942.0 1137919.0 7463.0
588703.0 1137802.0 7445.0
586521.0 1136620.0 7459.0
588891.0 1138833.0 7537.0
588842.0 1138883.0 7494.0
588745.0 1138959.0 7525.0
587963.0 1138580.0 7508.0
586959.0 1138081.0 7606.0
584752.0 1136224.0 7627.0
585683.0 1137129.0 7506.0
586377.0 1138037.0 7475.0
583662.0 1136412.0 7559.0
585628.0 1138161.0 7438.0
583393.0 1136475.0 7601.0
583842.0 1136932.0 7602.0
586369.0 1139415.0 7501.0
584346.0 1137995.0 7577.0
585327.0 1138874.0 7582.0
584153.0 1138115.0 7524.0
585104.0 1139029.0 7550.0
583176.0 1137531.0 7479.0
583701.0 1138031.0 7509.0
583007.0 1137635.0 7555.0
583475.0 1138075.0 7551.0
583034.0 1137821.0 7577.0
584705.0 1139427.0 7498.0
582841.0 1137990.0 7622.0
583349.0 1138373.0 7501.0
583439.0 1138998.0 7559.0
583693.0 1139367.0 7528.0
583471.0 1139241.0 7532.0
590347.0 1138445.0 7591.0
590139.0 1138130.0 7470.0
590335.0 1136368.0 7601.0
589669.0 1137793.0 7609.0
589304.0 1138038.0 7605.0
588764.0 1137763.0 7517.0
588800.0 1136389.0 7454.0
588923.0 1136023.0 7471.0
588512.0 1136574.0 7508.0
588606.0 1136195.0 7446.0
588256.0 1136787.0 7549.0
588452.0 1135964.0 7518.0
588069.0 1136552.0 7494.0
586866.0 1140192.0 7463.0
586771.0 1137990.0 7519.0
586403.0 1138453.0 7460.0
584924.0 1139262.0 7590.0
584190.0 1138175.0 7508.0
583344.0 1138952.0 7470.0
583567.0 1138057.0 7525.0
583234.0 1138200.0 7608.0
583315.0 1137774.0 7544.0
583798.0 1135693.0 7628.0
583050.0 1137722.0 7596.0
582694.0 1137785.0 7450.0
584517.0 1139877.0 7476.0
583833.0 1139429.0 7519.0
583458.0 1139242.0 7604.0
586112.0 1139958.0 7618.0
584638.0 1139452.0 7511.0
583914.0 1139184.0 7571.0
583539.0 1139014.0 7538.0
583345.0 1138334.0 7533.0
585255.0 1138771.0 7472.0
583785.0 1138223.0 7444.0
583437.0 1138022.0 7603.0
583086.0 1137908.0 7606.0
588688.0 1139070.0 7468.0
588070.0 1138284.0 7562.0
587714.0 1138167.0 7556.0
585443.0 1137020.0 7599.0
590334.0 1138506.0 7560.0
589646.0 1138224.0 7637.0
589294.0 1138102.0 7632.0
588921.0 1137997.0 7506.0
586370.0 1137141.0 7461.0
584602.0 1136404.0 7523.0
590277.0 1138178.0 7575.0
589931.0 1138014.0 7626.0
589549.0 1137893.0 7612.0
589131.0 1137848.0 7483.0
584608.0 1136108.0 7515.0
589759.0 1137650.0 7623.0
588151.0 1136901.0 7525.0
588350.0 1136767.0 7567.0
588688.0 1136625.0 7555.0
588327.0 1136532.0 7503.0
589079.0 1136467.0 7557.0
588375.0 1136237.0 7505.0
590142.0 1136450.0 7588.0
589389.0 1136240.0 7503.0
589036.0 1136147.0 7475.0
583154.0 1138497.0 7320.0
583517.0 1138556.0 7408.0
583705.0 1139569.0 7319.0
583431.0 1136438.0 7309.0
583588.0 1137295.0 7278.0
583592.0 1136128.0 7307.0
583711.0 1137099.0 7422.0
584683.0 1139712.0 7436.0
584905.0 1138852.0 7338.0
585407.0 1138594.0 7414.0
585543.0 1138437.0 7413.0
586102.0 1139346.0 7339.0
586257.0 1139457.0 7362.0
586417.0 1140329.0 7351.0
586469.0 1139621.0 7324.0
586614.0 1139546.0 7271.0
586821.0 1140074.0 7328.0
586568.0 1137911.0 7398.0
586925.0 1139944.0 7342.0
586582.0 1136775.0 7365.0
587054.0 1138932.0 7247.0
587206.0 1139290.0 7293.0
587470.0 1140224.0 7299.0
587562.0 1140392.0 7381.0
587745.0 1140313.0 7252.0
587764.0 1140101.0 7431.0
587871.0 1137046.0 7326.0
588062.0 1137620.0 7328.0
588561.0 1139243.0 7273.0
588440.0 1137857.0 7356.0
588331.0 1136161.0 7363.0
588535.0 1135867.0 7275.0
588697.0 1136036.0 7391.0
589816.0 1136022.0 7334.0
589399.0 1135907.0 7240.0
588651.0 1135886.0 7316.0
588641.0 1137854.0 7386.0
588393.0 1137820.0 7335.0
588105.0 1137725.0 7311.0
587999.0 1137722.0 7265.0
588030.0 1137847.0 7281.0
588720.0 1139049.0 7415.0
588505.0 1139067.0 7363.0
585916.0 1137377.0 7252.0
586654.0 1138429.0 7284.0
587543.0 1139934.0 7323.0
583368.0 1136195.0 7290.0
587679.0 1140202.0 7240.0
585465.0 1138440.0 7374.0
586152.0 1139247.0 7297.0
585932.0 1139198.0 7278.0
586354.0 1139720.0 7358.0
586852.0 1140156.0 7333.0
587355.0 1140574.0 7325.0
586612.0 1140266.0 7307.0
584045.0 1138442.0 7272.0
583684.0 1138422.0 7304.0
583845.0 1138807.0 7385.0
583057.0 1138289.0 7363.0
583129.0 1138495.0 7323.0
582998.0 1138509.0 7278.0
583278.0 1138874.0 7275.0
589942.0 1137527.0 7353.0
588930.0 1138055.0 7412.0
589419.0 1136063.0 7361.0
588429.0 1139018.0 7373.0
589018.0 1136402.0 7395.0
589134.0 1136019.0 7328.0
587799.0 1140293.0 7243.0
588128.0 1139016.0 7333.0
588420.0 1137746.0 7356.0
587489.0 1140620.0 7352.0
587573.0 1140268.0 7256.0
588158.0 1137816.0 7292.0
587280.0 1140623.0 7373.0
587354.0 1140253.0 7331.0
587054.0 1140476.0 7365.0
587912.0 1136971.0 7386.0
587024.0 1138924.0 7264.0
586552.0 1140026.0 7360.0
586317.0 1139724.0 7404.0
586383.0 1139304.0 7310.0
586100.0 1139349.0 7321.0
585581.0 1138291.0 7380.0
584734.0 1138784.0 7414.0
584416.0 1138087.0 7394.0
584012.0 1138559.0 7267.0
583736.0 1138561.0 7421.0
583042.0 1138601.0 7377.0
584588.0 1139726.0 7433.0
587515.0 1140574.0 7315.0
587165.0 1140421.0 7407.0
586808.0 1140285.0 7416.0
586406.0 1140214.0 7299.0
584257.0 1139381.0 7380.0
587497.0 1140310.0 7300.0
587142.0 1140160.0 7321.0
586767.0 1140021.0 7333.0
586408.0 1139882.0 7365.0
583889.0 1138973.0 7279.0
583178.0 1138674.0 7379.0
586351.0 1139548.0 7325.0
586000.0 1139389.0 7304.0
585625.0 1139233.0 7363.0
586338.0 1139262.0 7251.0
584115.0 1138423.0 7264.0
585527.0 1138509.0 7426.0
583410.0 1137766.0 7396.0
584651.0 1138009.0 7264.0
588321.0 1138992.0 7392.0
585776.0 1138112.0 7437.0
583598.0 1137311.0 7394.0
586562.0 1138111.0 7347.0
586225.0 1137979.0 7325.0
587941.0 1138021.0 7339.0
586120.0 1137368.0 7343.0
585756.0 1137241.0 7412.0
588547.0 1137921.0 7405.0
590108.0 1137862.0 7375.0
587908.0 1137081.0 7347.0
589932.0 1137619.0 7414.0
587741.0 1136883.0 7240.0
587990.0 1136693.0 7406.0
587984.0 1136419.0 7418.0
588715.0 1136386.0 7437.0
588651.0 1136022.0 7382.0
588289.0 1135900.0 7401.0
589695.0 1136067.0 7303.0
589331.0 1135932.0 7248.0
583091.0 1138949.0 7154.0
583190.0 1138986.0 7081.0
583312.0 1138723.0 7233.0
583486.0 1139510.0 7104.0
583287.0 1136491.0 7158.0
583516.0 1137524.0 7124.0
586300.0 1140418.0 7173.0
586641.0 1140623.0 7234.0
586515.0 1138470.0 7052.0
586781.0 1139154.0 7169.0
586836.0 1138895.0 7172.0
586962.0 1138937.0 7177.0
588083.0 1140148.0 7174.0
587711.0 1136885.0 7203.0
587879.0 1137912.0 7205.0
587975.0 1136083.0 7084.0
588827.0 1138319.0 7180.0
589834.0 1135621.0 7039.0
588685.0 1135686.0 7150.0
587457.0 1136153.0 7152.0
587647.0 1136656.0 7177.0
587664.0 1136857.0 7175.0
587802.0 1137894.0 7209.0
588576.0 1139284.0 7093.0
586823.0 1138736.0 7173.0
586998.0 1139089.0 7173.0
587159.0 1139383.0 7104.0
588083.0 1140314.0 7226.0
587217.0 1139593.0 7043.0
586976.0 1139502.0 7096.0
587420.0 1139977.0 7098.0
587893.0 1140415.0 7217.0
586969.0 1139761.0 7200.0
586773.0 1139685.0 7203.0
584369.0 1138396.0 7081.0
584826.0 1138912.0 7235.0
586457.0 1140396.0 7226.0
586545.0 1140678.0 7187.0
584076.0 1138570.0 7192.0
586478.0 1140737.0 7147.0
586405.0 1140767.0 7099.0
582995.0 1138654.0 7060.0
583084.0 1138854.0 7091.0
583505.0 1139297.0 7063.0
583465.0 1139506.0 7090.0
589416.0 1135670.0 7077.0
588089.0 1140260.0 7217.0
588610.0 1135796.0 7192.0
587951.0 1137594.0 7214.0
587135.0 1139580.0 7070.0
586520.0 1140989.0 7095.0
586852.0 1139708.0 7178.0
586942.0 1139308.0 7154.0
587594.0 1136869.0 7208.0
587631.0 1136447.0 7156.0
586390.0 1140451.0 7210.0
586596.0 1139570.0 7225.0
586694.0 1139152.0 7198.0
586758.0 1138731.0 7159.0
585833.0 1139213.0 7228.0
584231.0 1138499.0 7156.0
583802.0 1139352.0 7098.0
583901.0 1138968.0 7233.0
586496.0 1141017.0 7126.0
586598.0 1140789.0 7186.0
586377.0 1140573.0 7116.0
587835.0 1140434.0 7232.0
583517.0 1138870.0 7133.0
588242.0 1140279.0 7167.0
587876.0 1140166.0 7189.0
587110.0 1139885.0 7187.0
586731.0 1139734.0 7199.0
587028.0 1139564.0 7121.0
586694.0 1139424.0 7175.0
585948.0 1139175.0 7108.0
585588.0 1139008.0 7163.0
584457.0 1138612.0 7109.0
587277.0 1139314.0 7152.0
586969.0 1139188.0 7157.0
584428.0 1138218.0 7199.0
586866.0 1138872.0 7157.0
586491.0 1138729.0 7136.0
586861.0 1138577.0 7167.0
586504.0 1137871.0 7182.0
587560.0 1137969.0 7100.0
588159.0 1137877.0 7183.0
587735.0 1137816.0 7074.0
590185.0 1137605.0 7101.0
587566.0 1136674.0 7112.0
588945.0 1135836.0 7085.0
588609.0 1135714.0 7099.0
589441.0 1135709.0 7042.0
583044.0 1139025.0 6995.0
583290.0 1139755.0 6909.0
583412.0 1139475.0 7020.0
584896.0 1138324.0 6871.0
584893.0 1138015.0 6992.0
585092.0 1137973.0 6862.0
586421.0 1138585.0 6964.0
586174.0 1136281.0 6952.0
587319.0 1139926.0 6846.0
587326.0 1139813.0 6907.0
587097.0 1136788.0 6960.0
587566.0 1137838.0 6977.0
589086.0 1135766.0 7012.0
589702.0 1135437.0 6905.0
590070.0 1135735.0 6928.0
589795.0 1135323.0 6844.0
589428.0 1135464.0 6850.0
589178.0 1135690.0 6880.0
587478.0 1136810.0 7022.0
587621.0 1137122.0 7019.0
589308.0 1138632.0 6838.0
587555.0 1137158.0 6906.0
589124.0 1138623.0 6958.0
589099.0 1138708.0 6892.0
586875.0 1137106.0 6915.0
587385.0 1137552.0 6932.0
586287.0 1137368.0 6996.0
586261.0 1137882.0 6966.0
586521.0 1138579.0 7004.0
585127.0 1137865.0 6865.0
587539.0 1140111.0 7025.0
586407.0 1140890.0 6967.0
586003.0 1140722.0 7013.0
585902.0 1140815.0 6972.0
589202.0 1138597.0 6881.0
589867.0 1136002.0 6981.0
588969.0 1138389.0 6907.0
589636.0 1135820.0 7037.0
588838.0 1135553.0 6898.0
587491.0 1139828.0 6841.0
587322.0 1139752.0 6953.0
587753.0 1137956.0 6928.0
587548.0 1137822.0 7020.0
587278.0 1137681.0 6881.0
587053.0 1137411.0 6933.0
585922.0 1136214.0 7037.0
585662.0 1136238.0 6969.0
584965.0 1137940.0 6852.0
584641.0 1138267.0 6957.0
584784.0 1137938.0 7011.0
584447.0 1138226.0 6988.0
583148.0 1139014.0 7023.0
587386.0 1139762.0 6896.0
584752.0 1138482.0 6841.0
583711.0 1138027.0 6967.0
586470.0 1138501.0 6988.0
586121.0 1137813.0 6913.0
587434.0 1137128.0 6916.0
587415.0 1136808.0 7006.0
585989.0 1136323.0 6901.0
585641.0 1136184.0 6887.0
587210.0 1136619.0 6844.0
586014.0 1136253.0 6841.0
587530.0 1136437.0 6995.0
590140.0 1135985.0 6862.0
589798.0 1135825.0 6932.0
588682.0 1135506.0 6871.0
585752.0 1136174.0 6783.0
586183.0 1137661.0 6761.0
586308.0 1138543.0 6819.0
587357.0 1137639.0 6649.0
589429.0 1138763.0 6725.0
588937.0 1135392.0 6724.0
587367.0 1137143.0 6757.0
587399.0 1137320.0 6729.0
585956.0 1136217.0 6808.0
586047.0 1137447.0 6817.0
586258.0 1138359.0 6650.0
583585.0 1138825.0 6786.0
589410.0 1138748.0 6726.0
590125.0 1135831.0 6727.0
589893.0 1135647.0 6794.0
589630.0 1135394.0 6712.0
589060.0 1135567.0 6836.0
587126.0 1136520.0 6762.0
586403.0 1138360.0 6804.0
585106.0 1138413.0 6814.0
585838.0 1138924.0 6691.0
585005.0 1137998.0 6801.0
585431.0 1137970.0 6647.0
585071.0 1137804.0 6772.0
589282.0 1138752.0 6748.0
587368.0 1137742.0 6771.0
586773.0 1136871.0 6737.0
587026.0 1136768.0 6728.0
586398.0 1136383.0 6803.0
585637.0 1136097.0 6780.0
589044.0 1135622.0 6768.0
589988.0 1135691.0 6728.0
589627.0 1135546.0 6832.0
589241.0 1135461.0 6741.0
589807.0 1135415.0 6768.0
583843.0 1137279.0 6536.0
584510.0 1139981.0 6447.0
586202.0 1138261.0 6491.0
588183.0 1139194.0 6459.0
588441.0 1139981.0 6550.0
589366.0 1139204.0 6550.0
589006.0 1135196.0 6587.0
589002.0 1135225.0 6610.0
587104.0 1137293.0 6538.0
585709.0 1136343.0 6535.0
587247.0 1137741.0 6478.0
587731.0 1138236.0 6549.0
588405.0 1139132.0 6536.0
588326.0 1139244.0 6457.0
588068.0 1139159.0 6439.0
584264.0 1137115.0 6495.0
587450.0 1140045.0 6582.0
585585.0 1138535.0 6448.0
587507.0 1140331.0 6483.0
583964.0 1137706.0 6445.0
585124.0 1139208.0 6552.0
584978.0 1139154.0 6484.0
585061.0 1139410.0 6447.0
584705.0 1139301.0 6473.0
584881.0 1139708.0 6571.0
584635.0 1139595.0 6481.0
584411.0 1139504.0 6493.0
584229.0 1139458.0 6519.0
584783.0 1139909.0 6439.0
587328.0 1140180.0 6575.0
587499.0 1139374.0 6533.0
587790.0 1138159.0 6543.0
587008.0 1140584.0 6634.0
587141.0 1137238.0 6474.0
586685.0 1136595.0 6440.0
585679.0 1138761.0 6533.0
585945.0 1137466.0 6515.0
585426.0 1137808.0 6633.0
584752.0 1139290.0 6450.0
584436.0 1139603.0 6485.0
584211.0 1139567.0 6485.0
584365.0 1137805.0 6442.0
584830.0 1139897.0 6480.0
584477.0 1139758.0 6475.0
584859.0 1139572.0 6585.0
587526.0 1139376.0 6550.0
585667.0 1138701.0 6472.0
585297.0 1138545.0 6469.0
583411.0 1137757.0 6609.0
589400.0 1139123.0 6564.0
586428.0 1138123.0 6458.0
588068.0 1138069.0 6467.0
586282.0 1136612.0 6496.0
589457.0 1135307.0 6582.0
583720.0 1137480.0 6421.0
584260.0 1139760.0 6404.0
584798.0 1140091.0 6374.0
584680.0 1137759.0 6348.0
584917.0 1139467.0 6382.0
587198.0 1140590.0 6238.0
587137.0 1137795.0 6295.0
587650.0 1139092.0 6280.0
587883.0 1139270.0 6322.0
587141.0 1136179.0 6310.0
589792.0 1138955.0 6295.0
589761.0 1139012.0 6238.0
589536.0 1139132.0 6364.0
589435.0 1139255.0 6381.0
588542.0 1139592.0 6363.0
587852.0 1139096.0 6371.0
588328.0 1139535.0 6353.0
587608.0 1139007.0 6293.0
588153.0 1139506.0 6379.0
586192.0 1137926.0 6392.0
587743.0 1139313.0 6255.0
584128.0 1137219.0 6411.0
584612.0 1137672.0 6324.0
584426.0 1137840.0 6404.0
587339.0 1140455.0 6361.0
584174.0 1139547.0 6427.0
584663.0 1139992.0 6427.0
584122.0 1139726.0 6379.0
583949.0 1139804.0 6296.0
583989.0 1140057.0 6320.0
589209.0 1139085.0 6405.0
588534.0 1139207.0 6274.0
588287.0 1139203.0 6389.0
588253.0 1138093.0 6318.0
587687.0 1139354.0 6336.0
588019.0 1138103.0 6401.0
587204.0 1140596.0 6402.0
586676.0 1137836.0 6270.0
586515.0 1136951.0 6251.0
585877.0 1138832.0 6416.0
586034.0 1137001.0 6301.0
585038.0 1139010.0 6361.0
585156.0 1138615.0 6413.0
584018.0 1139937.0 6289.0
584008.0 1140100.0 6405.0
584074.0 1139942.0 6323.0
584144.0 1139753.0 6381.0
584538.0 1139572.0 6433.0
584754.0 1139321.0 6435.0
585096.0 1139162.0 6347.0
587611.0 1139696.0 6428.0
586197.0 1139141.0 6381.0
585065.0 1138814.0 6330.0
588628.0 1139811.0 6272.0
587901.0 1139590.0 6252.0
588518.0 1139480.0 6290.0
588168.0 1139364.0 6306.0
587807.0 1139276.0 6276.0
585612.0 1138483.0 6280.0
584228.0 1137860.0 6427.0
583516.0 1137679.0 6362.0
584655.0 1137764.0 6328.0
584328.0 1137577.0 6258.0
584199.0 1137343.0 6410.0
589586.0 1138972.0 6399.0
585976.0 1136760.0 6418.0
586736.0 1136646.0 6380.0
589088.0 1135241.0 6417.0
583598.0 1137773.0 6102.0
583975.0 1140294.0 6075.0
584010.0 1140134.0 6202.0
584912.0 1137694.0 6154.0
585058.0 1138683.0 6199.0
585270.0 1138750.0 6180.0
586133.0 1139184.0 6049.0
586083.0 1137752.0 6142.0
586090.0 1137229.0 6219.0
587037.0 1137802.0 6131.0
587247.0 1138822.0 6100.0
587354.0 1138867.0 6172.0
587427.0 1138870.0 6220.0
587609.0 1139202.0 6233.0
587822.0 1139438.0 6226.0
588807.0 1139395.0 6136.0
588967.0 1139214.0 6157.0
586885.0 1136198.0 6042.0
589725.0 1139080.0 6209.0
588232.0 1138288.0 6218.0
586804.0 1137198.0 6147.0
588871.0 1139095.0 6136.0
586992.0 1137677.0 6236.0
585936.0 1137263.0 6136.0
588809.0 1139890.0 6125.0
585974.0 1137444.0 6214.0
588688.0 1139938.0 6116.0
587265.0 1138806.0 6128.0
588261.0 1139768.0 6194.0
587394.0 1139128.0 6134.0
587863.0 1139588.0 6175.0
588003.0 1139829.0 6070.0
584810.0 1137533.0 6204.0
585493.0 1138574.0 6045.0
585151.0 1138657.0 6197.0
583863.0 1140162.0 6135.0
588643.0 1139786.0 6213.0
588745.0 1139397.0 6196.0
588005.0 1139928.0 6086.0
588120.0 1139585.0 6207.0
588383.0 1138359.0 6141.0
588470.0 1137978.0 6194.0
587555.0 1140562.0 6109.0
587828.0 1139733.0 6229.0
587914.0 1139316.0 6207.0
588105.0 1138485.0 6207.0
587720.0 1138897.0 6175.0
587459.0 1138941.0 6138.0
587258.0 1138824.0 6085.0
586296.0 1139050.0 6064.0
586704.0 1136173.0 6123.0
586177.0 1137191.0 6155.0
586280.0 1136826.0 6111.0
584942.0 1140174.0 6170.0
584195.0 1140081.0 6133.0
583920.0 1140322.0 6183.0
584575.0 1137466.0 6175.0
583565.0 1140802.0 6067.0
583617.0 1140378.0 6063.0
583756.0 1139958.0 6143.0
583837.0 1137704.0 6212.0
583490.0 1140860.0 6097.0
583566.0 1140628.0 6051.0
583800.0 1140467.0 6112.0
583618.0 1140132.0 6052.0
587375.0 1140686.0 6204.0
583151.0 1138811.0 6152.0
587893.0 1139937.0 6090.0
586476.0 1139377.0 6117.0
588261.0 1139803.0 6108.0
586359.0 1138990.0 6234.0
586030.0 1138886.0 6225.0
587448.0 1139165.0 6222.0
583837.0 1137804.0 6171.0
587467.0 1138915.0 6135.0
589015.0 1139217.0 6185.0
584924.0 1137675.0 6070.0
584548.0 1137550.0 6164.0
586302.0 1137888.0 6189.0
589486.0 1138803.0 6092.0
586945.0 1137809.0 6156.0
585925.0 1137435.0 6213.0
588193.0 1137988.0 6232.0
586983.0 1137291.0 6066.0
586585.0 1136859.0 6122.0
586726.0 1136507.0 6094.0
582911.0 1138832.0 5920.0
583152.0 1140786.0 5890.0
583328.0 1140801.0 5933.0
583143.0 1138653.0 5973.0
583426.0 1140536.0 6010.0
583509.0 1140016.0 5984.0
583573.0 1139749.0 6005.0
583707.0 1140550.0 5966.0
583921.0 1140415.0 5973.0
587192.0 1139078.0 6015.0
587432.0 1140830.0 5908.0
587657.0 1139947.0 5920.0
588296.0 1139955.0 5980.0
589002.0 1139418.0 6029.0
588973.0 1139579.0 5956.0
588400.0 1139983.0 5937.0
586955.0 1138774.0 5864.0
587811.0 1139888.0 5981.0
587392.0 1140785.0 5847.0
583687.0 1137965.0 6011.0
582990.0 1138801.0 6026.0
583451.0 1139697.0 5924.0
583554.0 1140097.0 6012.0
583387.0 1140177.0 5948.0
583740.0 1140650.0 5871.0
583308.0 1140458.0 5934.0
583198.0 1140545.0 5910.0
588848.0 1139818.0 5955.0
588962.0 1139454.0 5961.0
588168.0 1140060.0 5866.0
588691.0 1137935.0 5921.0
587410.0 1140984.0 5992.0
587634.0 1140174.0 5887.0
587487.0 1137494.0 5949.0
586947.0 1138622.0 5873.0
587300.0 1137308.0 5923.0
586181.0 1139438.0 5964.0
586014.0 1138732.0 5966.0
584965.0 1137469.0 5880.0
583672.0 1140681.0 5936.0
583314.0 1140636.0 5938.0
583425.0 1140197.0 5914.0
583449.0 1140365.0 5957.0
584260.0 1140513.0 5854.0
583643.0 1138160.0 5852.0
585977.0 1138695.0 6003.0
585274.0 1138409.0 5976.0
587100.0 1138809.0 6023.0
587119.0 1138599.0 5931.0
586192.0 1137610.0 6030.0
587069.0 1137567.0 6037.0
585550.0 1136746.0 6006.0
583262.0 1139976.0 5833.0
583487.0 1138087.0 5658.0
585115.0 1137255.0 5799.0
585545.0 1137217.0 5652.0
585696.0 1137194.0 5691.0
585999.0 1139170.0 5800.0
586908.0 1138509.0 5657.0
586995.0 1138392.0 5653.0
587862.0 1140171.0 5814.0
589106.0 1139233.0 5649.0
588691.0 1137962.0 5810.0
588661.0 1138021.0 5797.0
586832.0 1137494.0 5786.0
585518.0 1136724.0 5829.0
585343.0 1136928.0 5770.0
586981.0 1138586.0 5793.0
585356.0 1137311.0 5778.0
584771.0 1136899.0 5660.0
585259.0 1137329.0 5799.0
586786.0 1138623.0 5654.0
588253.0 1140080.0 5727.0
588731.0 1140465.0 5655.0
585486.0 1137538.0 5655.0
587795.0 1140184.0 5686.0
583516.0 1137529.0 5824.0
583504.0 1138017.0 5641.0
584136.0 1140525.0 5779.0
583927.0 1140549.0 5671.0
586818.0 1137588.0 5763.0
585771.0 1138400.0 5827.0
585535.0 1138208.0 5748.0
585395.0 1137485.0 5715.0
585195.0 1137343.0 5799.0
583562.0 1138016.0 5782.0
583426.0 1137584.0 5837.0
583040.0 1140834.0 5807.0
583171.0 1140110.0 5725.0
583233.0 1139895.0 5703.0
588679.0 1140642.0 5801.0
582874.0 1138518.0 5791.0
588569.0 1140249.0 5800.0
588206.0 1140213.0 5668.0
588840.0 1139900.0 5707.0
586028.0 1138523.0 5678.0
583518.0 1137588.0 5739.0
585605.0 1138110.0 5642.0
585240.0 1137603.0 5829.0
585458.0 1137470.0 5670.0
585144.0 1136724.0 5701.0
585974.0 1136308.0 5794.0
583115.0 1139791.0 5554.0
585641.0 1137901.0 5480.0
586057.0 1138507.0 5573.0
586776.0 1138455.0 5478.0
586745.0 1137487.0 5553.0
588740.0 1140094.0 5461.0
586799.0 1137571.0 5572.0
585868.0 1137327.0 5612.0
588962.0 1140054.0 5451.0
585557.0 1137202.0 5587.0
588941.0 1140290.0 5542.0
588707.0 1140199.0 5468.0
588381.0 1140205.0 5465.0
584489.0 1136805.0 5614.0
583354.0 1137485.0 5617.0
583433.0 1138037.0 5529.0
583362.0 1138168.0 5470.0
582997.0 1139654.0 5584.0
582904.0 1139729.0 5529.0
588330.0 1140205.0 5613.0
586198.0 1138547.0 5479.0
586498.0 1137305.0 5571.0
586615.0 1136872.0 5631.0
586637.0 1136454.0 5463.0
585926.0 1138284.0 5471.0
586183.0 1137392.0 5512.0
583166.0 1139695.0 5636.0
583245.0 1139710.0 5585.0
583202.0 1137542.0 5591.0
586719.0 1138544.0 5625.0
585947.0 1138296.0 5473.0
586940.0 1138428.0 5499.0
585112.0 1137348.0 5538.0
585877.0 1137401.0 5461.0
586566.0 1137303.0 5506.0
584761.0 1136625.0 5594.0
586020.0 1136155.0 5611.0
583195.0 1138257.0 5326.0
585468.0 1136932.0 5257.0
585776.0 1137134.0 5386.0
585974.0 1137453.0 5409.0
586658.0 1138192.0 5240.0
586676.0 1137582.0 5396.0
586669.0 1136408.0 5328.0
587490.0 1140540.0 5411.0
588252.0 1140250.0 5417.0
588393.0 1140252.0 5383.0
586602.0 1137503.0 5431.0
586131.0 1137566.0 5281.0
585889.0 1137673.0 5350.0
585931.0 1137912.0 5362.0
588294.0 1140254.0 5370.0
583538.0 1137640.0 5241.0
583033.0 1138223.0 5254.0
589083.0 1139909.0 5256.0
588539.0 1140236.0 5304.0
588160.0 1140594.0 5400.0
587673.0 1140324.0 5370.0
588546.0 1140246.0 5299.0
583373.0 1137972.0 5371.0
586585.0 1138354.0 5290.0
586228.0 1137575.0 5306.0
584700.0 1136995.0 5334.0
586171.0 1137047.0 5300.0
587322.0 1137019.0 5280.0
586580.0 1136770.0 5380.0
585010.0 1136846.0 5096.0
585850.0 1138207.0 5172.0
586368.0 1138305.0 5112.0
586478.0 1137647.0 5140.0
586079.0 1137635.0 5174.0
586572.0 1138094.0 5174.0
586411.0 1138052.0 5056.0
585085.0 1137016.0 5231.0
586494.0 1138252.0 5106.0
585943.0 1138188.0 5047.0
588335.0 1140455.0 5229.0
583485.0 1137350.0 5102.0
588391.0 1140614.0 5189.0
586436.0 1138340.0 5195.0
586150.0 1138123.0 5038.0
588265.0 1140758.0 5207.0
582791.0 1138372.0 5190.0
583188.0 1138249.0 5232.0
583634.0 1137586.0 5114.0
586215.0 1138263.0 5057.0
585096.0 1137164.0 5219.0
586192.0 1137338.0 5106.0
582860.0 1138052.0 4945.0
586108.0 1138132.0 5022.0
586198.0 1138067.0 4888.0
582739.0 1138053.0 4877.0
586121.0 1136876.0 4970.0
588582.0 1140907.0 5022.0
588800.0 1140429.0 4855.0
582836.0 1138227.0 4911.0
583650.0 1137451.0 4863.0
586415.0 1138136.0 4859.0
586106.0 1137983.0 4842.0
586165.0 1136970.0 4995.0
586192.0 1136739.0 5004.0
586065.0 1138006.0 4755.0
585840.0 1138176.0 4703.0
582905.0 1138009.0 4837.0
588820.0 1140331.0 4633.0
586270.0 1137887.0 4489.0
586331.0 1137474.0 4462.0
586337.0 1137481.0 4325.0
586109.0 1137810.0 4140.0
586030.0 1137402.0 4164.0
586413.0 1137426.0 4079.0
586183.0 1137818.0 3520.0
586280.0 1137737.0 3517.0
590421.0 1137442.0 2420.0
590266.0 1137415.0 2268.0
590238.0 1137472.0 2275.0
590269.0 1137503.0 2234.0
590188.0 1137484.0 2148.0
590149.0 1137703.0 2214.0
590196.0 1137347.0 2188.0
590153.0 1137504.0 1869.0
590324.0 1137599.0 2018.0
590170.0 1137556.0 2004.0
590332.0 1137766.0 1775.0
590356.0 1137849.0 1513.0
