563014.0 1161736.0 10301.0
563055.0 1161701.0 10257.0
562949.0 1161741.0 10286.0
560245.0 1159178.0 10130.0
562869.0 1161932.0 10126.0
564254.0 1161965.0 10226.0
564210.0 1161704.0 10069.0
563825.0 1161994.0 10135.0
562955.0 1161941.0 10124.0
559148.0 1159724.0 10220.0
559045.0 1159806.0 10186.0
558689.0 1159767.0 10183.0
559539.0 1160263.0 10082.0
559994.0 1160959.0 10081.0
563846.0 1161629.0 10164.0
560242.0 1159139.0 10159.0
558245.0 1160745.0 10173.0
563249.0 1161966.0 10180.0
562887.0 1161728.0 10206.0
559832.0 1159411.0 10215.0
560270.0 1159328.0 10232.0
557928.0 1160512.0 10098.0
557685.0 1160210.0 9875.0
558266.0 1159838.0 9950.0
558449.0 1159872.0 10018.0
559122.0 1159819.0 9935.0
559439.0 1160090.0 9957.0
560309.0 1160303.0 9858.0
564171.0 1161808.0 10015.0
560464.0 1160174.0 9846.0
558420.0 1159714.0 10023.0
558338.0 1159859.0 9972.0
557672.0 1159635.0 9895.0
558083.0 1159910.0 9916.0
557856.0 1159987.0 9882.0
558112.0 1160349.0 9847.0
557651.0 1160294.0 9858.0
564306.0 1161859.0 10011.0
559068.0 1160946.0 9867.0
558379.0 1160564.0 9855.0
558348.0 1160710.0 9941.0
558356.0 1160551.0 9862.0
557995.0 1160305.0 9961.0
557874.0 1159986.0 9874.0
557510.0 1159786.0 9902.0
560170.0 1160496.0 9973.0
559403.0 1160191.0 9850.0
559429.0 1159872.0 9920.0
564089.0 1161889.0 10033.0
564418.0 1161817.0 9886.0
562881.0 1161053.0 10025.0
562876.0 1160776.0 9968.0
559806.0 1159203.0 9944.0
558047.0 1160297.0 9815.0
558356.0 1159302.0 9716.0
560609.0 1160714.0 9702.0
560880.0 1160342.0 9692.0
560824.0 1160881.0 9648.0
567231.0 1161825.0 9663.0
560958.0 1160159.0 9702.0
560888.0 1160394.0 9717.0
560424.0 1160528.0 9779.0
560833.0 1160755.0 9641.0
558338.0 1159404.0 9796.0
559176.0 1159900.0 9797.0
558318.0 1160253.0 9824.0
558069.0 1160514.0 9788.0
566845.0 1161778.0 9639.0
564708.0 1161926.0 9836.0
560862.0 1160605.0 9676.0
560901.0 1160114.0 9652.0
560712.0 1160429.0 9690.0
560558.0 1160470.0 9661.0
560404.0 1160221.0 9769.0
559648.0 1160271.0 9711.0
558246.0 1160214.0 9778.0
558223.0 1159641.0 9744.0
560878.0 1160733.0 9647.0
560526.0 1160502.0 9771.0
560158.0 1160302.0 9739.0
558229.0 1159382.0 9705.0
560417.0 1160211.0 9712.0
559216.0 1159600.0 9642.0
564016.0 1161672.0 9667.0
564737.0 1161729.0 9726.0
564361.0 1161560.0 9662.0
558412.0 1160460.0 9611.0
558572.0 1160458.0 9579.0
560647.0 1160122.0 9585.0
566732.0 1161747.0 9601.0
566940.0 1161683.0 9630.0
567389.0 1161867.0 9594.0
567610.0 1161507.0 9620.0
567480.0 1161628.0 9576.0
566862.0 1161456.0 9538.0
566691.0 1161672.0 9596.0
567118.0 1161964.0 9608.0
565879.0 1161696.0 9604.0
561161.0 1160062.0 9631.0
561086.0 1160706.0 9611.0
560456.0 1160681.0 9607.0
560862.0 1160902.0 9545.0
559356.0 1160166.0 9631.0
559280.0 1160256.0 9443.0
567276.0 1161895.0 9524.0
565778.0 1161924.0 9476.0
565876.0 1161442.0 9525.0
564905.0 1161574.0 9590.0
564490.0 1161202.0 9531.0
564226.0 1161305.0 9540.0
563904.0 1161512.0 9533.0
561002.0 1160810.0 9543.0
561086.0 1160353.0 9625.0
561099.0 1159849.0 9492.0
560554.0 1160001.0 9569.0
558469.0 1160323.0 9525.0
561201.0 1160638.0 9579.0
560887.0 1160186.0 9612.0
560480.0 1160018.0 9498.0
558947.0 1159296.0 9454.0
560926.0 1159952.0 9484.0
564478.0 1161158.0 9448.0
567203.0 1161904.0 9531.0
566826.0 1161705.0 9582.0
558527.0 1160976.0 9290.0
558892.0 1159371.0 9403.0
559049.0 1159427.0 9426.0
559100.0 1161749.0 9362.0
559365.0 1160450.0 9318.0
564368.0 1161123.0 9377.0
564625.0 1160778.0 9258.0
564850.0 1160872.0 9260.0
565660.0 1160782.0 9253.0
565885.0 1161605.0 9282.0
567637.0 1161555.0 9355.0
564688.0 1160715.0 9248.0
565075.0 1161049.0 9367.0
564596.0 1161016.0 9380.0
558852.0 1159183.0 9299.0
558836.0 1159208.0 9268.0
559749.0 1160496.0 9262.0
559454.0 1160502.0 9274.0
558645.0 1160532.0 9370.0
559151.0 1161449.0 9372.0
565947.0 1161743.0 9242.0
565455.0 1161993.0 9280.0
565267.0 1160949.0 9292.0
565129.0 1161160.0 9392.0
565158.0 1160700.0 9288.0
564877.0 1161015.0 9325.0
564933.0 1160545.0 9283.0
564639.0 1160929.0 9295.0
560676.0 1159879.0 9413.0
559073.0 1161740.0 9300.0
559169.0 1161633.0 9312.0
558428.0 1161284.0 9283.0
559063.0 1161089.0 9362.0
558582.0 1160510.0 9326.0
564090.0 1161275.0 9394.0
565679.0 1161560.0 9257.0
564570.0 1160990.0 9318.0
565964.0 1161454.0 9303.0
565188.0 1161018.0 9328.0
567399.0 1161768.0 9401.0
565094.0 1160732.0 9279.0
559709.0 1160693.0 9115.0
564700.0 1160179.0 9077.0
564896.0 1160214.0 9065.0
565091.0 1160336.0 9055.0
564750.0 1160425.0 9135.0
559360.0 1160633.0 9124.0
559118.0 1160723.0 9118.0
558605.0 1160618.0 9196.0
565561.0 1160941.0 9207.0
564665.0 1160481.0 9162.0
561960.0 1161891.0 9075.0
561749.0 1161938.0 9079.0
559084.0 1160855.0 9137.0
558533.0 1160370.0 9062.0
559149.0 1161952.0 9226.0
559406.0 1161350.0 9166.0
558915.0 1160796.0 9141.0
559382.0 1160756.0 9077.0
560787.0 1161198.0 9120.0
565894.0 1161945.0 9157.0
566051.0 1161729.0 9177.0
564770.0 1160851.0 9229.0
564699.0 1160561.0 9189.0
567827.0 1161796.0 9189.0
567074.0 1161443.0 9103.0
566705.0 1161313.0 9128.0
565565.0 1160758.0 9095.0
564796.0 1160374.0 9113.0
560661.0 1161456.0 8885.0
560697.0 1161208.0 8990.0
560898.0 1161383.0 8973.0
561669.0 1161568.0 8889.0
561907.0 1161638.0 8882.0
562069.0 1161697.0 8872.0
564494.0 1160347.0 8908.0
565152.0 1161871.0 8894.0
565353.0 1160236.0 8992.0
565255.0 1160150.0 9002.0
564695.0 1160065.0 8976.0
565544.0 1160599.0 8994.0
564909.0 1161607.0 8914.0
561731.0 1161420.0 8855.0
561934.0 1161712.0 8882.0
560714.0 1161246.0 9024.0
560691.0 1161434.0 8939.0
560857.0 1161737.0 8877.0
567165.0 1161421.0 9033.0
565230.0 1160438.0 8995.0
565082.0 1160150.0 8900.0
564893.0 1160024.0 9020.0
562095.0 1161990.0 8890.0
562144.0 1161545.0 8858.0
560671.0 1161286.0 8932.0
559811.0 1160090.0 8866.0
559464.0 1161960.0 9020.0
559642.0 1160482.0 8995.0
559527.0 1161967.0 8974.0
561793.0 1161990.0 9024.0
559578.0 1160611.0 9029.0
559303.0 1159327.0 9013.0
564792.0 1161781.0 8841.0
565470.0 1160525.0 8959.0
565089.0 1160325.0 8996.0
565230.0 1160230.0 8875.0
564849.0 1160015.0 8987.0
559148.0 1160709.0 8776.0
560182.0 1159652.0 8709.0
560377.0 1161423.0 8777.0
560544.0 1159272.0 8692.0
560526.0 1161287.0 8764.0
560546.0 1161937.0 8717.0
560775.0 1161848.0 8820.0
563593.0 1161063.0 8693.0
563789.0 1161095.0 8735.0
564035.0 1160851.0 8752.0
564864.0 1161955.0 8711.0
560269.0 1159498.0 8683.0
559820.0 1159603.0 8640.0
562167.0 1161675.0 8773.0
562326.0 1161929.0 8645.0
559868.0 1160815.0 8672.0
560485.0 1161412.0 8692.0
560455.0 1161770.0 8645.0
565310.0 1160163.0 8773.0
565194.0 1159969.0 8721.0
564662.0 1161484.0 8781.0
563906.0 1161207.0 8712.0
563750.0 1161044.0 8805.0
560577.0 1161754.0 8753.0
560453.0 1161569.0 8727.0
560460.0 1161074.0 8791.0
560067.0 1159594.0 8665.0
559741.0 1160592.0 8771.0
559606.0 1159984.0 8751.0
559618.0 1159503.0 8659.0
560683.0 1161929.0 8656.0
560400.0 1161685.0 8764.0
560592.0 1161419.0 8775.0
561932.0 1161923.0 8793.0
561939.0 1161621.0 8780.0
559665.0 1160464.0 8830.0
562267.0 1161544.0 8706.0
559631.0 1159653.0 8647.0
565479.0 1161872.0 8816.0
563604.0 1161042.0 8662.0
565165.0 1161566.0 8656.0
565431.0 1160119.0 8683.0
565033.0 1159930.0 8711.0
557863.0 1161405.0 8475.0
559617.0 1159166.0 8571.0
560015.0 1159431.0 8531.0
562896.0 1160310.0 8443.0
563064.0 1160656.0 8482.0
563227.0 1160859.0 8558.0
563889.0 1160415.0 8455.0
564117.0 1160254.0 8529.0
563905.0 1160439.0 8489.0
565226.0 1161386.0 8526.0
562951.0 1160404.0 8458.0
563335.0 1160710.0 8577.0
560085.0 1158837.0 8466.0
563235.0 1160937.0 8597.0
560285.0 1159314.0 8627.0
559926.0 1159225.0 8512.0
559485.0 1159180.0 8558.0
559914.0 1159494.0 8610.0
559868.0 1159794.0 8623.0
562267.0 1161449.0 8628.0
559653.0 1160834.0 8543.0
559137.0 1160708.0 8539.0
558305.0 1160343.0 8454.0
558936.0 1160903.0 8445.0
558255.0 1160805.0 8561.0
557846.0 1161156.0 8461.0
566526.0 1161185.0 8547.0
565260.0 1161420.0 8579.0
564760.0 1161594.0 8556.0
563943.0 1160708.0 8563.0
563655.0 1160520.0 8505.0
563044.0 1161103.0 8486.0
560408.0 1159286.0 8541.0
560255.0 1159454.0 8609.0
559827.0 1159579.0 8587.0
559152.0 1160771.0 8523.0
557509.0 1161566.0 8446.0
557778.0 1161342.0 8542.0
557300.0 1160792.0 8490.0
558022.0 1160653.0 8452.0
563037.0 1161701.0 8447.0
562285.0 1161353.0 8442.0
563151.0 1161144.0 8506.0
559928.0 1159530.0 8580.0
559556.0 1159334.0 8567.0
564721.0 1161608.0 8608.0
563973.0 1161221.0 8603.0
563137.0 1160919.0 8463.0
560112.0 1159380.0 8541.0
559739.0 1159205.0 8470.0
564801.0 1161464.0 8449.0
564095.0 1161068.0 8535.0
563731.0 1160868.0 8613.0
563328.0 1160728.0 8482.0
560320.0 1159242.0 8451.0
563876.0 1160689.0 8566.0
564159.0 1160568.0 8523.0
563817.0 1160422.0 8532.0
557688.0 1161152.0 8282.0
557905.0 1160866.0 8352.0
558218.0 1160840.0 8410.0
558560.0 1160920.0 8349.0
559029.0 1161106.0 8369.0
559231.0 1161336.0 8280.0
559449.0 1161160.0 8306.0
559703.0 1161063.0 8322.0
562344.0 1161069.0 8307.0
562558.0 1160620.0 8243.0
562456.0 1161955.0 8414.0
562702.0 1160650.0 8393.0
562712.0 1161251.0 8355.0
562903.0 1160941.0 8383.0
563097.0 1161333.0 8409.0
563293.0 1160243.0 8391.0
563705.0 1160384.0 8346.0
564753.0 1161789.0 8286.0
567211.0 1161734.0 8247.0
567335.0 1161604.0 8311.0
564619.0 1161438.0 8248.0
559973.0 1158856.0 8337.0
562540.0 1160585.0 8253.0
562900.0 1160886.0 8418.0
562486.0 1160805.0 8266.0
562278.0 1160959.0 8322.0
562357.0 1161188.0 8369.0
560378.0 1160962.0 8238.0
559569.0 1160937.0 8425.0
559188.0 1160860.0 8370.0
559647.0 1161099.0 8297.0
560087.0 1161338.0 8246.0
558530.0 1160661.0 8340.0
559353.0 1161126.0 8337.0
559041.0 1161194.0 8389.0
557993.0 1160869.0 8392.0
558919.0 1161407.0 8273.0
557465.0 1160858.0 8314.0
557420.0 1161404.0 8286.0
566141.0 1161958.0 8380.0
566202.0 1161505.0 8321.0
565054.0 1161200.0 8429.0
564793.0 1161846.0 8417.0
564713.0 1161146.0 8336.0
563914.0 1160173.0 8298.0
563674.0 1160095.0 8345.0
563058.0 1160575.0 8414.0
562845.0 1160325.0 8329.0
562294.0 1161035.0 8327.0
562089.0 1161065.0 8382.0
560017.0 1159107.0 8383.0
559518.0 1161121.0 8240.0
559845.0 1159040.0 8399.0
559334.0 1160958.0 8334.0
559042.0 1161250.0 8371.0
557887.0 1161351.0 8345.0
558021.0 1161257.0 8302.0
557609.0 1161126.0 8267.0
558114.0 1161038.0 8315.0
557728.0 1160862.0 8302.0
559183.0 1161205.0 8354.0
557618.0 1160482.0 8332.0
558874.0 1160774.0 8386.0
558462.0 1160613.0 8287.0
560652.0 1161462.0 8247.0
559105.0 1160721.0 8350.0
562229.0 1161078.0 8316.0
561911.0 1160872.0 8437.0
562675.0 1161026.0 8255.0
562965.0 1160567.0 8384.0
559974.0 1159100.0 8421.0
566211.0 1161891.0 8347.0
563066.0 1160372.0 8376.0
566084.0 1161555.0 8374.0
563920.0 1160259.0 8356.0
566306.0 1160992.0 8243.0
557322.0 1161066.0 8094.0
557551.0 1161249.0 8099.0
557734.0 1160502.0 8184.0
558865.0 1161577.0 8226.0
560086.0 1161391.0 8159.0
560389.0 1161402.0 8112.0
562224.0 1161075.0 8106.0
562585.0 1161313.0 8109.0
566053.0 1161476.0 8229.0
566867.0 1161409.0 8042.0
564669.0 1161937.0 8071.0
558405.0 1160087.0 8131.0
560450.0 1161350.0 8128.0
559817.0 1161350.0 8165.0
560226.0 1161583.0 8067.0
557890.0 1160421.0 8192.0
559518.0 1161415.0 8141.0
557586.0 1160508.0 8167.0
558719.0 1161593.0 8161.0
557501.0 1161158.0 8224.0
557916.0 1161413.0 8132.0
566307.0 1161678.0 8211.0
564797.0 1161695.0 8056.0
564058.0 1160043.0 8135.0
562570.0 1161191.0 8091.0
562671.0 1160794.0 8045.0
562417.0 1161052.0 8225.0
560004.0 1161395.0 8071.0
559843.0 1161420.0 8068.0
559897.0 1160942.0 8055.0
559650.0 1161633.0 8130.0
559712.0 1161132.0 8154.0
558607.0 1161817.0 8053.0
559680.0 1161898.0 8057.0
558893.0 1161465.0 8226.0
559645.0 1161252.0 8176.0
558063.0 1160431.0 8183.0
560233.0 1161336.0 8041.0
559849.0 1161153.0 8088.0
558332.0 1160364.0 8099.0
559810.0 1160554.0 8195.0
562534.0 1161305.0 8073.0
562754.0 1160823.0 8233.0
566423.0 1161837.0 8080.0
565303.0 1161240.0 8210.0
557204.0 1161201.0 7926.0
557661.0 1161849.0 7840.0
558062.0 1160246.0 7963.0
559337.0 1161990.0 8013.0
559816.0 1161714.0 7999.0
560599.0 1161416.0 7975.0
566383.0 1161614.0 7926.0
566617.0 1161399.0 7859.0
566730.0 1161408.0 7961.0
566882.0 1161084.0 7894.0
566901.0 1161704.0 7901.0
567131.0 1160283.0 7854.0
567073.0 1161640.0 8013.0
567317.0 1160298.0 7862.0
567947.0 1160386.0 7919.0
567863.0 1160365.0 7853.0
567347.0 1160354.0 7875.0
567137.0 1160373.0 7841.0
566618.0 1160893.0 7894.0
567026.0 1161199.0 7939.0
560675.0 1161210.0 7942.0
559937.0 1161631.0 8025.0
560319.0 1161871.0 7988.0
559876.0 1161861.0 7894.0
558779.0 1161905.0 7976.0
557888.0 1161638.0 8037.0
558346.0 1161899.0 7966.0
557073.0 1161302.0 7928.0
557465.0 1161589.0 7955.0
566888.0 1160400.0 7883.0
566472.0 1161627.0 8004.0
566494.0 1161140.0 7893.0
564781.0 1161370.0 8028.0
560618.0 1161284.0 7885.0
560408.0 1161258.0 8037.0
560394.0 1160799.0 7998.0
559892.0 1161919.0 7961.0
560035.0 1160892.0 7979.0
558774.0 1161833.0 7908.0
558127.0 1161951.0 7879.0
557738.0 1161728.0 7936.0
557374.0 1161484.0 8005.0
558071.0 1161792.0 7941.0
557254.0 1161407.0 7948.0
558607.0 1161859.0 7993.0
558207.0 1161740.0 7982.0
558758.0 1161859.0 7931.0
559869.0 1161757.0 7982.0
557919.0 1160202.0 7956.0
560601.0 1161290.0 7938.0
560229.0 1161131.0 7911.0
558318.0 1160196.0 7856.0
563314.0 1161732.0 7946.0
566861.0 1161815.0 8020.0
566550.0 1161691.0 7921.0
566513.0 1161440.0 7951.0
567351.0 1161575.0 8004.0
563926.0 1159935.0 8001.0
567780.0 1160453.0 7905.0
557535.0 1161851.0 7825.0
558472.0 1160189.0 7766.0
562354.0 1160529.0 7732.0
564903.0 1161093.0 7813.0
566744.0 1160694.0 7816.0
566908.0 1160457.0 7832.0
567596.0 1159819.0 7721.0
567592.0 1160408.0 7778.0
568193.0 1160233.0 7689.0
567678.0 1159850.0 7638.0
568051.0 1160251.0 7814.0
567460.0 1160046.0 7738.0
567080.0 1159966.0 7747.0
567500.0 1160250.0 7792.0
567226.0 1160176.0 7833.0
567696.0 1160459.0 7740.0
566908.0 1160459.0 7837.0
566784.0 1160676.0 7834.0
566654.0 1161425.0 7831.0
566660.0 1161672.0 7788.0
561914.0 1161951.0 7760.0
558093.0 1159674.0 7648.0
557345.0 1161866.0 7676.0
567781.0 1160428.0 7824.0
567408.0 1160566.0 7639.0
567182.0 1160328.0 7751.0
567239.0 1159861.0 7772.0
566655.0 1161750.0 7709.0
566746.0 1160874.0 7681.0
566942.0 1159977.0 7775.0
566538.0 1160662.0 7690.0
565226.0 1160899.0 7645.0
561891.0 1161971.0 7809.0
561763.0 1161996.0 7830.0
562536.0 1161742.0 7748.0
563411.0 1161579.0 7686.0
564580.0 1161366.0 7827.0
564857.0 1161196.0 7811.0
566881.0 1161726.0 7682.0
566605.0 1161313.0 7807.0
567124.0 1161336.0 7794.0
566426.0 1160977.0 7777.0
566813.0 1160937.0 7650.0
566417.0 1160743.0 7657.0
566753.0 1160554.0 7816.0
567137.0 1160471.0 7693.0
566747.0 1160335.0 7676.0
567396.0 1160341.0 7780.0
567018.0 1160163.0 7762.0
567234.0 1160014.0 7710.0
557978.0 1159840.0 7547.0
558209.0 1159700.0 7550.0
561090.0 1161461.0 7586.0
561456.0 1161370.0 7467.0
562093.0 1160905.0 7609.0
562553.0 1161657.0 7623.0
563052.0 1161213.0 7444.0
567243.0 1160972.0 7561.0
567407.0 1159600.0 7584.0
567919.0 1160273.0 7633.0
567256.0 1159545.0 7470.0
567985.0 1160506.0 7585.0
567839.0 1160581.0 7614.0
567638.0 1160608.0 7601.0
567451.0 1160722.0 7574.0
567248.0 1160898.0 7604.0
567661.0 1161143.0 7475.0
566283.0 1160491.0 7501.0
568331.0 1161898.0 7475.0
567150.0 1161849.0 7451.0
563045.0 1160885.0 7458.0
562147.0 1160714.0 7531.0
562074.0 1160870.0 7637.0
562034.0 1161015.0 7614.0
561113.0 1161351.0 7603.0
558023.0 1159706.0 7545.0
567226.0 1161521.0 7509.0
567275.0 1161050.0 7460.0
566928.0 1161854.0 7637.0
567012.0 1160875.0 7516.0
567281.0 1159348.0 7582.0
566650.0 1161313.0 7520.0
566281.0 1160663.0 7597.0
562207.0 1160541.0 7440.0
561278.0 1161491.0 7575.0
558468.0 1160087.0 7507.0
558049.0 1159859.0 7557.0
563026.0 1161190.0 7488.0
562255.0 1160766.0 7626.0
565733.0 1161993.0 7579.0
564975.0 1161064.0 7614.0
566951.0 1161579.0 7530.0
567191.0 1161126.0 7595.0
566021.0 1160635.0 7465.0
567089.0 1160784.0 7627.0
566316.0 1160494.0 7452.0
568171.0 1161050.0 7440.0
567474.0 1160686.0 7578.0
567970.0 1160411.0 7619.0
567611.0 1160247.0 7553.0
567384.0 1159912.0 7590.0
562005.0 1161587.0 7238.0
566598.0 1160982.0 7332.0
566622.0 1161594.0 7394.0
567269.0 1159570.0 7360.0
567599.0 1161057.0 7294.0
567749.0 1161027.0 7397.0
567964.0 1160916.0 7388.0
568266.0 1161858.0 7374.0
568303.0 1160843.0 7386.0
568319.0 1160770.0 7286.0
568113.0 1160820.0 7354.0
567918.0 1160966.0 7380.0
561485.0 1161284.0 7338.0
568009.0 1161059.0 7273.0
568091.0 1160571.0 7297.0
567660.0 1161926.0 7305.0
567826.0 1160921.0 7376.0
567985.0 1160417.0 7406.0
567439.0 1161793.0 7289.0
567509.0 1161337.0 7430.0
567598.0 1160881.0 7428.0
567677.0 1159976.0 7347.0
566251.0 1160156.0 7244.0
565734.0 1161866.0 7327.0
566013.0 1160573.0 7413.0
564769.0 1161892.0 7276.0
563644.0 1161516.0 7369.0
562878.0 1161036.0 7403.0
561308.0 1161316.0 7358.0
558198.0 1159759.0 7418.0
563385.0 1161422.0 7380.0
563123.0 1161171.0 7242.0
564886.0 1161716.0 7251.0
567657.0 1161997.0 7321.0
568177.0 1161984.0 7327.0
567467.0 1161644.0 7354.0
567554.0 1161379.0 7386.0
567797.0 1161203.0 7398.0
567448.0 1161112.0 7363.0
567815.0 1160903.0 7419.0
566326.0 1160286.0 7241.0
568081.0 1160306.0 7426.0
567758.0 1160142.0 7367.0
567517.0 1159846.0 7297.0
562308.0 1161547.0 7090.0
563580.0 1161328.0 7071.0
568487.0 1160520.0 7236.0
568319.0 1160654.0 7229.0
568073.0 1161678.0 7229.0
568228.0 1160728.0 7204.0
567898.0 1161527.0 7117.0
568041.0 1160113.0 7073.0
567670.0 1161441.0 7068.0
566840.0 1161342.0 7172.0
564850.0 1161757.0 7063.0
561986.0 1161517.0 7219.0
563501.0 1161355.0 7159.0
565518.0 1161749.0 7210.0
565130.0 1161606.0 7067.0
565239.0 1161410.0 7100.0
565536.0 1161356.0 7105.0
567841.0 1161873.0 7177.0
566739.0 1161346.0 7210.0
567938.0 1161676.0 7122.0
565907.0 1160449.0 7103.0
568122.0 1160939.0 7172.0
566561.0 1160184.0 7232.0
568307.0 1160733.0 7167.0
568405.0 1160562.0 7164.0
567914.0 1160079.0 7139.0
568021.0 1160036.0 7116.0
567298.0 1159651.0 7220.0
566901.0 1160667.0 6947.0
565087.0 1160446.0 6933.0
563724.0 1161337.0 6986.0
562189.0 1161147.0 7016.0
561275.0 1161122.0 7000.0
562313.0 1160894.0 6934.0
565600.0 1161609.0 6977.0
565185.0 1160702.0 6921.0
565154.0 1160459.0 6849.0
566884.0 1160430.0 6845.0
561953.0 1160961.0 6705.0
562197.0 1160987.0 6723.0
565265.0 1160392.0 6837.0
565279.0 1161061.0 6777.0
566786.0 1160313.0 6773.0
566979.0 1160040.0 6640.0
565606.0 1160249.0 6803.0
565335.0 1160984.0 6786.0
562341.0 1161040.0 6760.0
567106.0 1160488.0 6828.0
565370.0 1161059.0 6658.0
565454.0 1160559.0 6736.0
565127.0 1161142.0 6737.0
565237.0 1160641.0 6811.0
562098.0 1161049.0 6799.0
565280.0 1161130.0 6699.0
565524.0 1160660.0 6800.0
568103.0 1161653.0 6686.0
565470.0 1160403.0 6695.0
565886.0 1160311.0 6722.0
567078.0 1160325.0 6691.0
566699.0 1160155.0 6650.0
567241.0 1160202.0 6645.0
566444.0 1160196.0 6511.0
566612.0 1160061.0 6599.0
566866.0 1159719.0 6464.0
567248.0 1159944.0 6468.0
567494.0 1159818.0 6478.0
567208.0 1159713.0 6481.0
567000.0 1159735.0 6505.0
567434.0 1159962.0 6484.0
566730.0 1159712.0 6466.0
567206.0 1160008.0 6468.0
566607.0 1160035.0 6601.0
565174.0 1160134.0 6532.0
568109.0 1161571.0 6632.0
567391.0 1159906.0 6466.0
567099.0 1160027.0 6578.0
566819.0 1159797.0 6508.0
566440.0 1159870.0 6456.0
565235.0 1160178.0 6536.0
561722.0 1160986.0 6599.0
564895.0 1160995.0 6471.0
565480.0 1161026.0 6520.0
565104.0 1160295.0 6548.0
566852.0 1160043.0 6593.0
567388.0 1160074.0 6554.0
566998.0 1159923.0 6546.0
567585.0 1160021.0 6494.0
567249.0 1159847.0 6580.0
564078.0 1161451.0 6271.0
564917.0 1160844.0 6324.0
566519.0 1159509.0 6339.0
567416.0 1159803.0 6417.0
567689.0 1159540.0 6259.0
567897.0 1159563.0 6282.0
568086.0 1159767.0 6434.0
567893.0 1159567.0 6436.0
567745.0 1159642.0 6333.0
567378.0 1159529.0 6307.0
567810.0 1159772.0 6331.0
567705.0 1159846.0 6308.0
566622.0 1159420.0 6374.0
565262.0 1159852.0 6427.0
563998.0 1161517.0 6394.0
561695.0 1160911.0 6247.0
566504.0 1159430.0 6422.0
565524.0 1160934.0 6351.0
565588.0 1160502.0 6400.0
565372.0 1160095.0 6340.0
564788.0 1160849.0 6332.0
564408.0 1161819.0 6415.0
564042.0 1161739.0 6250.0
563934.0 1161500.0 6267.0
564144.0 1161923.0 6381.0
561833.0 1160880.0 6277.0
564272.0 1161801.0 6269.0
565431.0 1160235.0 6354.0
565083.0 1160097.0 6288.0
565196.0 1159918.0 6288.0
566426.0 1159909.0 6383.0
566575.0 1159773.0 6406.0
566822.0 1159707.0 6381.0
566430.0 1159576.0 6256.0
567568.0 1159844.0 6362.0
567199.0 1159674.0 6361.0
560001.0 1161975.0 6126.0
564124.0 1160845.0 6095.0
565779.0 1160760.0 6084.0
566769.0 1159301.0 6202.0
567145.0 1159290.0 6167.0
567326.0 1159261.0 6134.0
567110.0 1159337.0 6207.0
564032.0 1161130.0 6101.0
564022.0 1161527.0 6164.0
564048.0 1161740.0 6189.0
567963.0 1159738.0 6090.0
567747.0 1159986.0 6222.0
567816.0 1159571.0 6158.0
564341.0 1161270.0 6113.0
564181.0 1161608.0 6212.0
564046.0 1161264.0 6075.0
564291.0 1161351.0 6116.0
563560.0 1161012.0 6057.0
564244.0 1161114.0 6072.0
565520.0 1159862.0 6174.0
566801.0 1159526.0 6198.0
567691.0 1159702.0 6226.0
567296.0 1159511.0 6203.0
566857.0 1159350.0 6046.0
567147.0 1159208.0 6048.0
561690.0 1160876.0 5982.0
563980.0 1160683.0 6030.0
563996.0 1161329.0 6027.0
565776.0 1160590.0 5989.0
560012.0 1161842.0 6036.0
565677.0 1160532.0 5932.0
564892.0 1160594.0 5906.0
564165.0 1161071.0 6000.0
563917.0 1161022.0 6009.0
563908.0 1160537.0 5862.0
563832.0 1161386.0 6014.0
563934.0 1161184.0 6025.0
563811.0 1160927.0 5970.0
564378.0 1160975.0 5994.0
563994.0 1160839.0 5945.0
563624.0 1160664.0 5920.0
564549.0 1160849.0 5856.0
564615.0 1160613.0 5856.0
565701.0 1160760.0 6035.0
564954.0 1160543.0 5870.0
565754.0 1160571.0 5850.0
568064.0 1159920.0 6004.0
567900.0 1159537.0 5989.0
559961.0 1161736.0 5770.0
559689.0 1161788.0 5657.0
559545.0 1161988.0 5821.0
565818.0 1160573.0 5803.0
559817.0 1161724.0 5767.0
559266.0 1161970.0 5698.0
559456.0 1161907.0 5706.0
559873.0 1161776.0 5823.0
563814.0 1160594.0 5670.0
563496.0 1159253.0 5602.0
563903.0 1160734.0 5524.0
559466.0 1161664.0 5565.0
558720.0 1161570.0 5465.0
559445.0 1161728.0 5443.0
564169.0 1160791.0 5511.0
565898.0 1160541.0 5622.0
559883.0 1161597.0 5407.0
560163.0 1161154.0 5306.0
562264.0 1160760.0 5239.0
562485.0 1160350.0 5261.0
562425.0 1160906.0 5384.0
563231.0 1159335.0 5287.0
563431.0 1159579.0 5285.0
564308.0 1160744.0 5262.0
558760.0 1161535.0 5325.0
559128.0 1161825.0 5427.0
564152.0 1160734.0 5295.0
558903.0 1161763.0 5246.0
558803.0 1161753.0 5361.0
558724.0 1161413.0 5339.0
560165.0 1161565.0 5287.0
562310.0 1160723.0 5277.0
558815.0 1161793.0 5058.0
560036.0 1161072.0 5110.0
561697.0 1160863.0 5099.0
562326.0 1160095.0 5056.0
562526.0 1159726.0 5097.0
563063.0 1159632.0 5075.0
563477.0 1159714.0 5112.0
563841.0 1159481.0 5073.0
563888.0 1160011.0 5146.0
563148.0 1159619.0 5128.0
562438.0 1159639.0 5094.0
562883.0 1159902.0 5041.0
562596.0 1159916.0 5101.0
562553.0 1160119.0 5163.0
562481.0 1160228.0 5156.0
562254.0 1160312.0 5085.0
562313.0 1160623.0 5215.0
561937.0 1160550.0 5041.0
562337.0 1160854.0 5196.0
561602.0 1161023.0 5165.0
560071.0 1161172.0 5225.0
558494.0 1161825.0 5080.0
563931.0 1160518.0 5141.0
563260.0 1159836.0 5073.0
563361.0 1159392.0 5176.0
562186.0 1160390.0 5149.0
561819.0 1160944.0 5194.0
561897.0 1160448.0 5100.0
561598.0 1161101.0 5172.0
560359.0 1161277.0 5055.0
560099.0 1161471.0 5097.0
559846.0 1161419.0 5087.0
559514.0 1161618.0 5048.0
558130.0 1161844.0 5211.0
560602.0 1161514.0 5136.0
561693.0 1161226.0 5195.0
561734.0 1161026.0 5174.0
561761.0 1160773.0 5104.0
561878.0 1160590.0 5097.0
562047.0 1160422.0 5112.0
562373.0 1160342.0 5157.0
562606.0 1160218.0 5102.0
564052.0 1160641.0 5047.0
562840.0 1160077.0 5053.0
562486.0 1159900.0 5102.0
563323.0 1159951.0 5224.0
563377.0 1159762.0 5122.0
563439.0 1159485.0 5230.0
558757.0 1161884.0 4857.0
559776.0 1161523.0 4884.0
561556.0 1160801.0 4932.0
561893.0 1160622.0 5037.0
562065.0 1160270.0 4924.0
563347.0 1159901.0 4922.0
563757.0 1159965.0 4923.0
563788.0 1160576.0 4934.0
563968.0 1160638.0 4902.0
564295.0 1160665.0 5031.0
562796.0 1159306.0 4853.0
561644.0 1160527.0 4902.0
561530.0 1160666.0 4908.0
560408.0 1160933.0 4913.0
559831.0 1161209.0 4844.0
559785.0 1161519.0 4889.0
558922.0 1161831.0 4890.0
558359.0 1161925.0 4839.0
563794.0 1159821.0 4894.0
563667.0 1159929.0 4905.0
562956.0 1159911.0 4951.0
562984.0 1159413.0 4842.0
562723.0 1160003.0 5019.0
562454.0 1159904.0 4980.0
562535.0 1159467.0 4901.0
562159.0 1159866.0 4878.0
561501.0 1160609.0 4898.0
560095.0 1161019.0 4947.0
559918.0 1160920.0 5037.0
559864.0 1160385.0 4856.0
559644.0 1160665.0 5017.0
560176.0 1161429.0 4921.0
559830.0 1161229.0 5010.0
560147.0 1161125.0 4898.0
559909.0 1160755.0 4934.0
561297.0 1161132.0 4973.0
561619.0 1160312.0 4865.0
561924.0 1160209.0 4955.0
562182.0 1160070.0 4938.0
562903.0 1159877.0 4922.0
562542.0 1159738.0 4897.0
563726.0 1159957.0 4900.0
563353.0 1159304.0 4962.0
558549.0 1161895.0 4778.0
559228.0 1161470.0 4675.0
559507.0 1161467.0 4787.0
561344.0 1160743.0 4718.0
561809.0 1160198.0 4766.0
561991.0 1159975.0 4783.0
563091.0 1160212.0 4791.0
564048.0 1161882.0 4673.0
563609.0 1159835.0 4828.0
564416.0 1160594.0 4694.0
561920.0 1159938.0 4746.0
561281.0 1160260.0 4796.0
561224.0 1160548.0 4663.0
561330.0 1160833.0 4707.0
560020.0 1160676.0 4781.0
559346.0 1161399.0 4699.0
559261.0 1161570.0 4741.0
558865.0 1161505.0 4641.0
559251.0 1161767.0 4719.0
563395.0 1159818.0 4781.0
561860.0 1159913.0 4805.0
561177.0 1160368.0 4639.0
559533.0 1161145.0 4817.0
558972.0 1161729.0 4830.0
559199.0 1161617.0 4671.0
559727.0 1161601.0 4808.0
559391.0 1161154.0 4651.0
561387.0 1161552.0 4774.0
561296.0 1160715.0 4721.0
564088.0 1161820.0 4729.0
561465.0 1160489.0 4825.0
561806.0 1159958.0 4778.0
562948.0 1159693.0 4765.0
563714.0 1159829.0 4772.0
561091.0 1160434.0 4545.0
561643.0 1161355.0 4621.0
564475.0 1160667.0 4542.0
564439.0 1161952.0 4634.0
563109.0 1160069.0 4574.0
562164.0 1159765.0 4519.0
561168.0 1159832.0 4509.0
561153.0 1160292.0 4613.0
560954.0 1160480.0 4454.0
559422.0 1159765.0 4462.0
560206.0 1160318.0 4510.0
561038.0 1160801.0 4447.0
559471.0 1161205.0 4616.0
558040.0 1161892.0 4461.0
564382.0 1160573.0 4550.0
562953.0 1160243.0 4458.0
562641.0 1159498.0 4582.0
561204.0 1161559.0 4548.0
561082.0 1161396.0 4529.0
561055.0 1160893.0 4511.0
560963.0 1160316.0 4498.0
560003.0 1160494.0 4519.0
559908.0 1159288.0 4609.0
559078.0 1161609.0 4517.0
559702.0 1160517.0 4572.0
562025.0 1161187.0 4487.0
561048.0 1160387.0 4546.0
561183.0 1160199.0 4600.0
561125.0 1159967.0 4542.0
561337.0 1159851.0 4476.0
561951.0 1159809.0 4633.0
563969.0 1160552.0 4583.0
562544.0 1159513.0 4618.0
562893.0 1159552.0 4495.0
563633.0 1159668.0 4452.0
558990.0 1160025.0 4278.0
559708.0 1159633.0 4369.0
559713.0 1160241.0 4296.0
560011.0 1159645.0 4353.0
560024.0 1160291.0 4350.0
560045.0 1160964.0 4317.0
560290.0 1161020.0 4274.0
560675.0 1160721.0 4346.0
560717.0 1161348.0 4255.0
560898.0 1160000.0 4358.0
560903.0 1161757.0 4314.0
561189.0 1159203.0 4282.0
561131.0 1159797.0 4428.0
561131.0 1161075.0 4412.0
563022.0 1161613.0 4432.0
564027.0 1161280.0 4274.0
561170.0 1159224.0 4242.0
563205.0 1160586.0 4332.0
561232.0 1159568.0 4402.0
560916.0 1159771.0 4271.0
559935.0 1159453.0 4385.0
560789.0 1159935.0 4317.0
559981.0 1159601.0 4354.0
560842.0 1160202.0 4419.0
563578.0 1161901.0 4244.0
559735.0 1159658.0 4375.0
559849.0 1159978.0 4346.0
559233.0 1159927.0 4371.0
560978.0 1161034.0 4296.0
559055.0 1160151.0 4313.0
560295.0 1160926.0 4249.0
560760.0 1161551.0 4289.0
560129.0 1161950.0 4298.0
564156.0 1161546.0 4271.0
564025.0 1160724.0 4251.0
562972.0 1159779.0 4255.0
562515.0 1161438.0 4340.0
561182.0 1159844.0 4432.0
560735.0 1161328.0 4270.0
561002.0 1159850.0 4415.0
560691.0 1159895.0 4258.0
560381.0 1161213.0 4397.0
560544.0 1159685.0 4317.0
560164.0 1160678.0 4300.0
560222.0 1160158.0 4270.0
560015.0 1159962.0 4311.0
560082.0 1159475.0 4339.0
559798.0 1159816.0 4381.0
559470.0 1160068.0 4363.0
559222.0 1160135.0 4393.0
558849.0 1160219.0 4405.0
558636.0 1159818.0 4258.0
558514.0 1161998.0 4336.0
560053.0 1161920.0 4333.0
561016.0 1161470.0 4416.0
561118.0 1161330.0 4422.0
560080.0 1160791.0 4331.0
558884.0 1160225.0 4321.0
559202.0 1160110.0 4351.0
562382.0 1161406.0 4300.0
560891.0 1160607.0 4433.0
560078.0 1160274.0 4316.0
559673.0 1160067.0 4349.0
559867.0 1159924.0 4293.0
559508.0 1159699.0 4362.0
559897.0 1159688.0 4347.0
564120.0 1161541.0 4294.0
560265.0 1159636.0 4320.0
559922.0 1159505.0 4302.0
560213.0 1159376.0 4313.0
564288.0 1160745.0 4356.0
562513.0 1159366.0 4422.0
558218.0 1161898.0 4198.0
558620.0 1161845.0 4140.0
560607.0 1159852.0 4117.0
560552.0 1161133.0 4194.0
560752.0 1161966.0 4148.0
560914.0 1161192.0 4214.0
562387.0 1160880.0 4062.0
562478.0 1161207.0 4144.0
562480.0 1161845.0 4152.0
562679.0 1159457.0 4043.0
562671.0 1161403.0 4080.0
562896.0 1159729.0 4080.0
562856.0 1160921.0 4129.0
563091.0 1160298.0 4219.0
563394.0 1160250.0 4120.0
563640.0 1160479.0 4077.0
563816.0 1160380.0 4126.0
564223.0 1160065.0 4162.0
564864.0 1160844.0 4056.0
564780.0 1161450.0 4149.0
562789.0 1159647.0 4058.0
563130.0 1160135.0 4206.0
563607.0 1160349.0 4098.0
563111.0 1160289.0 4228.0
563605.0 1160516.0 4065.0
564011.0 1160825.0 4124.0
562916.0 1160596.0 4224.0
563025.0 1161118.0 4131.0
562328.0 1161227.0 4181.0
562735.0 1161466.0 4063.0
560722.0 1161181.0 4228.0
559559.0 1160764.0 4207.0
560839.0 1161879.0 4208.0
564775.0 1160418.0 4114.0
564317.0 1160064.0 4193.0
563932.0 1161183.0 4137.0
563819.0 1160199.0 4122.0
563326.0 1161996.0 4043.0
563591.0 1160468.0 4174.0
563419.0 1160680.0 4123.0
563472.0 1160246.0 4082.0
563588.0 1159302.0 4074.0
563072.0 1161885.0 4046.0
562859.0 1161826.0 4088.0
563059.0 1160250.0 4070.0
562663.0 1161665.0 4176.0
562706.0 1161162.0 4057.0
562811.0 1160687.0 4185.0
562543.0 1158988.0 4081.0
560822.0 1161905.0 4175.0
560496.0 1161319.0 4192.0
560570.0 1160354.0 4149.0
560219.0 1161708.0 4173.0
560379.0 1160699.0 4229.0
560390.0 1160177.0 4119.0
560021.0 1161771.0 4193.0
558865.0 1161410.0 4123.0
560830.0 1161732.0 4227.0
560405.0 1161600.0 4127.0
560566.0 1161388.0 4181.0
560699.0 1161239.0 4119.0
560425.0 1161034.0 4185.0
562816.0 1161920.0 4181.0
560369.0 1160770.0 4162.0
560438.0 1160509.0 4209.0
563617.0 1161836.0 4097.0
562537.0 1161319.0 4057.0
560595.0 1160310.0 4223.0
562678.0 1161149.0 4086.0
562606.0 1160919.0 4056.0
560625.0 1159887.0 4212.0
564312.0 1161472.0 4044.0
563971.0 1161229.0 4161.0
562848.0 1160718.0 4167.0
560892.0 1159745.0 4199.0
560556.0 1159590.0 4189.0
563079.0 1160537.0 4151.0
561105.0 1159622.0 4118.0
563533.0 1160489.0 4093.0
563142.0 1160337.0 4100.0
564335.0 1160559.0 4229.0
564811.0 1160591.0 4108.0
564378.0 1160115.0 4200.0
562499.0 1159164.0 4127.0
563806.0 1159659.0 4040.0
558791.0 1161686.0 3927.0
558987.0 1161360.0 3945.0
559243.0 1161176.0 3989.0
559818.0 1160877.0 3994.0
560405.0 1160462.0 4034.0
560585.0 1161790.0 4009.0
562573.0 1159307.0 3900.0
562987.0 1159100.0 3923.0
562926.0 1160330.0 4021.0
562994.0 1161491.0 3897.0
563182.0 1159005.0 3961.0
563382.0 1158986.0 4028.0
563430.0 1159604.0 3946.0
563759.0 1159291.0 3845.0
563726.0 1161057.0 3879.0
563905.0 1161036.0 3956.0
564092.0 1159945.0 4036.0
564300.0 1161244.0 3987.0
563226.0 1158921.0 3948.0
563695.0 1159221.0 3870.0
564149.0 1159530.0 3916.0
562980.0 1158966.0 3929.0
563591.0 1159830.0 3884.0
563248.0 1159852.0 3986.0
563664.0 1160152.0 4031.0
562785.0 1159731.0 4015.0
562900.0 1160168.0 3904.0
563730.0 1160786.0 3977.0
563845.0 1161062.0 3925.0
563069.0 1160837.0 4023.0
564431.0 1161719.0 3978.0
562698.0 1160806.0 3981.0
562808.0 1161706.0 3975.0
560364.0 1161212.0 4008.0
559180.0 1160640.0 3869.0
559557.0 1160905.0 3841.0
560421.0 1161534.0 4030.0
560339.0 1161696.0 3972.0
559786.0 1161630.0 4007.0
558509.0 1161925.0 3963.0
564823.0 1160949.0 3883.0
564551.0 1161743.0 3952.0
564595.0 1161288.0 3914.0
564684.0 1160836.0 3953.0
564370.0 1161430.0 4036.0
564260.0 1159548.0 3841.0
564021.0 1159779.0 3948.0
563558.0 1161175.0 3884.0
563802.0 1159679.0 3945.0
563620.0 1159945.0 4019.0
563274.0 1161145.0 3894.0
563085.0 1159752.0 3950.0
563140.0 1159248.0 3903.0
562905.0 1159309.0 3942.0
560567.0 1161862.0 4029.0
560872.0 1159321.0 3964.0
560366.0 1161827.0 4001.0
560660.0 1159435.0 4001.0
559731.0 1160933.0 3888.0
559264.0 1160572.0 3960.0
558740.0 1161395.0 3983.0
558683.0 1161628.0 4037.0
560416.0 1161975.0 3943.0
563098.0 1161863.0 4033.0
562737.0 1161670.0 4013.0
562885.0 1161537.0 3901.0
563077.0 1161431.0 3848.0
563291.0 1161319.0 3861.0
562931.0 1161053.0 4027.0
564650.0 1161659.0 3981.0
563526.0 1161179.0 3848.0
563182.0 1161011.0 3904.0
564253.0 1161236.0 3879.0
563833.0 1161042.0 3936.0
560675.0 1159438.0 4018.0
564648.0 1161123.0 3935.0
561200.0 1159461.0 3870.0
564686.0 1160839.0 3961.0
563902.0 1160456.0 4011.0
563549.0 1160301.0 3977.0
563184.0 1160098.0 3961.0
564446.0 1160415.0 4024.0
564023.0 1160234.0 4024.0
563634.0 1160049.0 4032.0
563223.0 1159904.0 3901.0
563982.0 1159948.0 4020.0
562854.0 1159401.0 3943.0
564175.0 1159849.0 3915.0
563003.0 1159310.0 3891.0
562616.0 1159124.0 3895.0
564187.0 1159676.0 3867.0
562976.0 1159076.0 3890.0
563396.0 1159065.0 3924.0
558418.0 1161897.0 3670.0
559120.0 1161212.0 3768.0
559529.0 1160885.0 3798.0
561106.0 1159388.0 3797.0
562553.0 1159159.0 3751.0
563280.0 1160979.0 3814.0
563552.0 1160949.0 3771.0
564358.0 1159463.0 3786.0
564570.0 1159604.0 3781.0
562484.0 1159252.0 3785.0
563566.0 1161074.0 3794.0
559604.0 1161739.0 3815.0
566194.0 1161161.0 3682.0
565523.0 1161693.0 3713.0
564628.0 1161971.0 3758.0
564865.0 1160425.0 3687.0
564481.0 1159477.0 3654.0
564000.0 1159315.0 3692.0
563501.0 1160653.0 3742.0
563380.0 1161004.0 3754.0
563543.0 1159359.0 3697.0
563368.0 1159690.0 3761.0
563133.0 1158776.0 3772.0
562906.0 1158867.0 3782.0
562648.0 1158833.0 3640.0
561034.0 1159353.0 3796.0
559384.0 1160861.0 3682.0
565038.0 1161925.0 3783.0
565436.0 1161843.0 3760.0
563446.0 1160959.0 3682.0
566100.0 1161928.0 3651.0
565744.0 1161752.0 3667.0
563791.0 1160845.0 3722.0
564763.0 1160402.0 3784.0
563178.0 1159640.0 3804.0
564846.0 1160302.0 3654.0
564544.0 1160080.0 3718.0
563374.0 1159525.0 3802.0
563777.0 1159479.0 3828.0
563362.0 1159302.0 3804.0
562579.0 1158946.0 3675.0
564480.0 1159689.0 3700.0
564113.0 1159479.0 3781.0
563728.0 1159320.0 3706.0
562999.0 1158939.0 3779.0
563056.0 1158783.0 3713.0
560606.0 1159258.0 3546.0
564903.0 1159945.0 3482.0
564990.0 1160248.0 3606.0
565436.0 1161089.0 3518.0
565433.0 1161718.0 3636.0
565689.0 1161122.0 3481.0
565915.0 1161459.0 3581.0
566197.0 1161295.0 3568.0
566459.0 1161074.0 3548.0
566903.0 1160846.0 3554.0
567077.0 1160169.0 3534.0
565924.0 1161282.0 3531.0
565496.0 1161133.0 3456.0
565897.0 1161411.0 3539.0
565391.0 1161233.0 3457.0
565775.0 1161556.0 3610.0
562805.0 1159728.0 3516.0
560985.0 1159110.0 3585.0
560906.0 1159188.0 3581.0
559051.0 1161166.0 3623.0
559901.0 1161737.0 3585.0
566580.0 1161346.0 3550.0
566369.0 1161227.0 3497.0
566058.0 1161608.0 3532.0
565818.0 1161338.0 3550.0
564814.0 1159938.0 3440.0
561206.0 1159193.0 3534.0
559071.0 1161115.0 3537.0
558360.0 1161913.0 3636.0
559589.0 1161668.0 3590.0
559094.0 1161145.0 3541.0
559290.0 1161037.0 3506.0
560726.0 1160935.0 3475.0
565359.0 1161589.0 3619.0
560793.0 1159352.0 3623.0
566124.0 1161692.0 3536.0
565762.0 1161496.0 3591.0
565409.0 1161330.0 3636.0
561224.0 1159280.0 3624.0
560829.0 1159160.0 3459.0
565968.0 1161360.0 3542.0
562819.0 1159788.0 3597.0
566205.0 1161212.0 3531.0
565832.0 1161069.0 3438.0
565071.0 1160642.0 3631.0
566378.0 1161069.0 3507.0
565196.0 1160502.0 3597.0
566502.0 1160902.0 3595.0
566154.0 1160747.0 3512.0
564600.0 1159933.0 3626.0
566399.0 1160685.0 3514.0
564827.0 1159956.0 3450.0
562610.0 1158820.0 3561.0
564521.0 1159521.0 3623.0
564162.0 1159330.0 3549.0
564117.0 1159097.0 3603.0
559062.0 1161099.0 3300.0
564941.0 1161282.0 3289.0
565113.0 1160853.0 3340.0
565982.0 1160850.0 3367.0
566959.0 1160163.0 3372.0
567166.0 1160410.0 3409.0
567421.0 1160203.0 3278.0
566484.0 1160265.0 3329.0
566076.0 1160838.0 3381.0
565508.0 1160839.0 3268.0
566903.0 1161400.0 3331.0
566716.0 1161479.0 3379.0
566754.0 1161000.0 3287.0
566613.0 1160869.0 3389.0
565769.0 1160819.0 3264.0
565425.0 1161130.0 3323.0
564977.0 1159950.0 3295.0
563634.0 1160677.0 3341.0
560469.0 1158967.0 3306.0
564917.0 1161495.0 3323.0
560439.0 1159009.0 3333.0
565559.0 1161208.0 3432.0
561120.0 1159096.0 3384.0
566746.0 1161299.0 3362.0
565975.0 1160917.0 3411.0
565286.0 1160427.0 3365.0
564956.0 1160221.0 3338.0
566712.0 1160894.0 3324.0
563326.0 1159276.0 3282.0
564872.0 1159798.0 3329.0
566867.0 1160454.0 3424.0
564042.0 1158850.0 3326.0
558781.0 1161487.0 3075.0
558969.0 1161161.0 3045.0
559283.0 1160791.0 3115.0
564415.0 1161968.0 3164.0
564639.0 1161268.0 3116.0
566345.0 1159956.0 3202.0
566360.0 1160562.0 3069.0
566589.0 1160344.0 3180.0
566817.0 1159487.0 3182.0
567645.0 1160198.0 3222.0
567896.0 1160017.0 3111.0
566779.0 1159461.0 3134.0
566726.0 1159690.0 3131.0
566384.0 1159756.0 3064.0
566510.0 1160418.0 3115.0
563885.0 1158927.0 3056.0
566150.0 1160457.0 3069.0
563560.0 1158978.0 3077.0
567478.0 1160039.0 3110.0
567241.0 1159927.0 3074.0
566937.0 1160872.0 3137.0
567080.0 1159904.0 3118.0
566833.0 1160050.0 3091.0
566616.0 1160375.0 3116.0
566684.0 1159884.0 3074.0
566055.0 1160620.0 3180.0
565480.0 1160645.0 3180.0
565076.0 1161118.0 3181.0
564764.0 1161390.0 3192.0
564514.0 1161456.0 3046.0
560002.0 1161560.0 3041.0
564505.0 1161924.0 3135.0
564520.0 1161683.0 3073.0
564935.0 1161270.0 3179.0
565103.0 1161097.0 3170.0
560688.0 1158951.0 3166.0
565383.0 1160959.0 3181.0
565013.0 1160825.0 3073.0
565529.0 1160809.0 3153.0
566907.0 1161204.0 3159.0
565969.0 1160613.0 3167.0
566326.0 1160537.0 3116.0
563647.0 1159037.0 3051.0
567083.0 1160293.0 3178.0
567532.0 1160213.0 3041.0
567198.0 1160032.0 3147.0
566807.0 1159907.0 3045.0
563821.0 1158908.0 2938.0
564034.0 1158751.0 2891.0
565647.0 1160418.0 2994.0
565882.0 1160372.0 2951.0
566131.0 1160215.0 2963.0
566616.0 1159620.0 3029.0
567287.0 1159684.0 3036.0
564806.0 1161051.0 3035.0
559186.0 1160795.0 3025.0
558954.0 1161027.0 2926.0
558874.0 1161227.0 3011.0
558774.0 1161322.0 2852.0
558754.0 1161637.0 2945.0
568075.0 1159905.0 2987.0
567794.0 1159857.0 2980.0
566700.0 1160471.0 3021.0
566677.0 1159359.0 2981.0
566260.0 1160159.0 2874.0
566429.0 1159688.0 2945.0
565024.0 1160627.0 2938.0
564722.0 1160881.0 2965.0
564019.0 1158948.0 2898.0
563530.0 1160221.0 2852.0
559790.0 1161285.0 2848.0
564545.0 1161449.0 3022.0
564555.0 1161208.0 2951.0
564666.0 1160967.0 2982.0
563515.0 1160367.0 3035.0
563451.0 1160156.0 2852.0
565631.0 1160670.0 3020.0
565550.0 1160487.0 2995.0
565174.0 1160336.0 2869.0
565941.0 1160462.0 3024.0
566398.0 1160367.0 3025.0
565981.0 1160250.0 2841.0
567422.0 1160526.0 2974.0
566659.0 1160179.0 3013.0
564004.0 1158948.0 2899.0
566433.0 1159766.0 2917.0
567905.0 1160111.0 2905.0
567109.0 1159743.0 2920.0
566722.0 1159515.0 3012.0
567904.0 1159821.0 2897.0
568035.0 1159538.0 2930.0
559149.0 1160608.0 2675.0
559650.0 1161156.0 2779.0
565377.0 1160199.0 2688.0
565771.0 1160075.0 2763.0
567327.0 1160507.0 2780.0
565997.0 1160160.0 2779.0
564174.0 1159408.0 2759.0
563899.0 1159452.0 2774.0
563747.0 1158818.0 2807.0
558610.0 1161548.0 2678.0
559336.0 1161755.0 2674.0
558974.0 1160969.0 2688.0
566253.0 1160066.0 2808.0
563620.0 1158836.0 2832.0
564128.0 1158785.0 2753.0
567520.0 1160019.0 2813.0
558629.0 1161639.0 2470.0
558789.0 1161257.0 2485.0
565233.0 1159944.0 2508.0
566005.0 1159707.0 2621.0
565803.0 1159700.0 2492.0
559676.0 1161120.0 2603.0
558560.0 1161611.0 2474.0
567842.0 1160403.0 2501.0
566051.0 1159719.0 2616.0
565302.0 1160046.0 2540.0
564173.0 1158938.0 2596.0
558567.0 1161315.0 2545.0
558690.0 1161151.0 2445.0
563195.0 1159926.0 2587.0
565510.0 1160123.0 2553.0
565123.0 1159979.0 2451.0
565857.0 1159959.0 2547.0
565497.0 1159833.0 2555.0
563782.0 1158665.0 2620.0
558635.0 1161036.0 2397.0
559228.0 1161832.0 2374.0
559369.0 1161731.0 2408.0
565457.0 1159660.0 2387.0
565876.0 1159686.0 2304.0
558622.0 1160774.0 2317.0
558446.0 1160918.0 2290.0
559261.0 1161743.0 2370.0
558675.0 1161039.0 2404.0
565069.0 1159753.0 2258.0
565937.0 1159752.0 2330.0
565552.0 1159652.0 2243.0
559627.0 1160718.0 2033.0
559379.0 1160620.0 1841.0
559028.0 1161729.0 1851.0
565894.0 1159247.0 2013.0
558635.0 1161769.0 1842.0
558564.0 1160985.0 2037.0
559273.0 1160839.0 1922.0
565748.0 1159462.0 2023.0
559161.0 1160671.0 1733.0
559504.0 1160534.0 1695.0
559647.0 1160442.0 1672.0
559477.0 1160403.0 1659.0
559092.0 1160863.0 1818.0
558593.0 1160991.0 1673.0
558866.0 1161851.0 1836.0
559432.0 1160570.0 1685.0
566098.0 1159717.0 1753.0
558975.0 1161018.0 1600.0
559399.0 1160434.0 1528.0
559076.0 1160657.0 1531.0
