546997.0 1086797.0 15869.0
547461.0 1084559.0 15844.0
547075.0 1085395.0 15934.0
546038.0 1089686.0 15886.0
544953.0 1094425.0 15984.0
544777.0 1094457.0 15960.0
545157.0 1091988.0 15909.0
546215.0 1086406.0 15895.0
546517.0 1084996.0 15855.0
544462.0 1094698.0 15866.0
545958.0 1086704.0 15961.0
545033.0 1089858.0 15995.0
544356.0 1089830.0 15939.0
544026.0 1089766.0 15856.0
544110.0 1089323.0 15869.0
542936.0 1092085.0 15888.0
543516.0 1088819.0 15888.0
543019.0 1090568.0 15952.0
546424.0 1098950.0 16033.0
545663.0 1098598.0 15995.0
544801.0 1096858.0 15935.0
549851.0 1098650.0 15926.0
550275.0 1098000.0 15988.0
549899.0 1097864.0 15905.0
548716.0 1097314.0 15938.0
550278.0 1097751.0 15945.0
549902.0 1097610.0 15905.0
548762.0 1097130.0 15882.0
550744.0 1097676.0 15959.0
550422.0 1097608.0 15862.0
548899.0 1096943.0 15856.0
549123.0 1096711.0 16000.0
548039.0 1095785.0 16008.0
548761.0 1095865.0 15898.0
547980.0 1095534.0 15895.0
551428.0 1096688.0 15914.0
548063.0 1095330.0 15945.0
551572.0 1096441.0 15849.0
551250.0 1096271.0 15877.0
550921.0 1096113.0 15898.0
549100.0 1095389.0 15903.0
547194.0 1094156.0 15905.0
544823.0 1093100.0 16020.0
544475.0 1092955.0 15856.0
550335.0 1095118.0 15985.0
543200.0 1092114.0 15861.0
550564.0 1094898.0 16001.0
548737.0 1094118.0 15968.0
553096.0 1095667.0 16011.0
550418.0 1094584.0 16005.0
548792.0 1093991.0 15882.0
547289.0 1093285.0 15926.0
552861.0 1095387.0 15983.0
550561.0 1094483.0 15887.0
552694.0 1095091.0 15985.0
552364.0 1094967.0 15951.0
552534.0 1094741.0 15936.0
552584.0 1094415.0 15990.0
553395.0 1094421.0 16031.0
548699.0 1091929.0 16002.0
548942.0 1091865.0 15851.0
548629.0 1091696.0 15905.0
548145.0 1091265.0 15942.0
547777.0 1091078.0 16025.0
544251.0 1089595.0 15920.0
543852.0 1089443.0 15918.0
543465.0 1089289.0 15884.0
547937.0 1090953.0 15937.0
547169.0 1090663.0 15968.0
544179.0 1089388.0 15857.0
543811.0 1089167.0 15938.0
543440.0 1089019.0 15956.0
552283.0 1092152.0 15942.0
544182.0 1088767.0 16011.0
552340.0 1091879.0 16002.0
551761.0 1091295.0 16005.0
549545.0 1090403.0 16009.0
549217.0 1090235.0 15993.0
551662.0 1090924.0 15981.0
549695.0 1090175.0 15957.0
551206.0 1090506.0 15871.0
549214.0 1089381.0 15907.0
546995.0 1088429.0 15936.0
545906.0 1086672.0 15958.0
545530.0 1086535.0 15880.0
549881.0 1088183.0 15859.0
549513.0 1088020.0 15884.0
545849.0 1086422.0 16030.0
548529.0 1087387.0 15852.0
546313.0 1086408.0 15935.0
549647.0 1087577.0 15867.0
546522.0 1086335.0 15842.0
546132.0 1086130.0 15943.0
549961.0 1087388.0 15858.0
549224.0 1087114.0 15874.0
548673.0 1086513.0 15911.0
550052.0 1086719.0 15998.0
548886.0 1086255.0 16009.0
547008.0 1085489.0 15925.0
546624.0 1085286.0 15952.0
548852.0 1085997.0 16009.0
546696.0 1085072.0 16016.0
550956.0 1086644.0 15945.0
550592.0 1086487.0 15970.0
550256.0 1086421.0 15929.0
549901.0 1086279.0 15865.0
548872.0 1085820.0 15928.0
548897.0 1085658.0 15857.0
547769.0 1085141.0 15985.0
548605.0 1085244.0 15912.0
547875.0 1084965.0 15872.0
547510.0 1084814.0 15869.0
548548.0 1084180.0 15885.0
548903.0 1084085.0 15883.0
550401.0 1084338.0 15933.0
551003.0 1083921.0 15905.0
551041.0 1083648.0 15854.0
542889.0 1092127.0 15833.0
543685.0 1097822.0 15657.0
543330.0 1088279.0 15678.0
544136.0 1095026.0 15770.0
543972.0 1090462.0 15708.0
544431.0 1094646.0 15672.0
544358.0 1092846.0 15672.0
544688.0 1097037.0 15755.0
544683.0 1095111.0 15730.0
545061.0 1089952.0 15821.0
546491.0 1097466.0 15702.0
545816.0 1086721.0 15769.0
545699.0 1084321.0 15829.0
546920.0 1091100.0 15741.0
547305.0 1092903.0 15794.0
548014.0 1100059.0 15697.0
546654.0 1085476.0 15835.0
547660.0 1093870.0 15658.0
547774.0 1095499.0 15748.0
548301.0 1098241.0 15736.0
547181.0 1085554.0 15666.0
548770.0 1099127.0 15713.0
547380.0 1085070.0 15787.0
548707.0 1096855.0 15679.0
547485.0 1084228.0 15711.0
547660.0 1084311.0 15829.0
548001.0 1086609.0 15674.0
548225.0 1085136.0 15745.0
548536.0 1087441.0 15672.0
548644.0 1087155.0 15807.0
549126.0 1090580.0 15682.0
548775.0 1083896.0 15676.0
549237.0 1087765.0 15705.0
550378.0 1098372.0 15797.0
549247.0 1086633.0 15822.0
550693.0 1098664.0 15709.0
549620.0 1086441.0 15748.0
549832.0 1088067.0 15721.0
551020.0 1098646.0 15835.0
549740.0 1086109.0 15816.0
549963.0 1087903.0 15676.0
549892.0 1086151.0 15745.0
550130.0 1088048.0 15731.0
550980.0 1095261.0 15761.0
549999.0 1086150.0 15784.0
550214.0 1087740.0 15768.0
550306.0 1088479.0 15695.0
550851.0 1093128.0 15770.0
551015.0 1093846.0 15684.0
550072.0 1085983.0 15766.0
551111.0 1093855.0 15828.0
551307.0 1094345.0 15715.0
550449.0 1087057.0 15657.0
551272.0 1094084.0 15821.0
551510.0 1095622.0 15676.0
551320.0 1093765.0 15784.0
550767.0 1088270.0 15663.0
551465.0 1093823.0 15753.0
550618.0 1086271.0 15793.0
551006.0 1088632.0 15666.0
551154.0 1090230.0 15773.0
550521.0 1083481.0 15694.0
551299.0 1088975.0 15704.0
551510.0 1088937.0 15818.0
552487.0 1091638.0 15834.0
552885.0 1090062.0 15670.0
553159.0 1090631.0 15700.0
553450.0 1093012.0 15734.0
549561.0 1083267.0 15685.0
549768.0 1084371.0 15808.0
548907.0 1083826.0 15806.0
549719.0 1084734.0 15716.0
550203.0 1085426.0 15755.0
550335.0 1085775.0 15746.0
548372.0 1084204.0 15836.0
549353.0 1084946.0 15753.0
549176.0 1085001.0 15825.0
549134.0 1085087.0 15789.0
550154.0 1086024.0 15817.0
550636.0 1086473.0 15806.0
551550.0 1087390.0 15660.0
549054.0 1085340.0 15680.0
551379.0 1087480.0 15687.0
548212.0 1084918.0 15732.0
549779.0 1086254.0 15797.0
548804.0 1085907.0 15816.0
546156.0 1084029.0 15698.0
550886.0 1088155.0 15697.0
550146.0 1087783.0 15702.0
550634.0 1088159.0 15695.0
551557.0 1089022.0 15734.0
546120.0 1084479.0 15682.0
550199.0 1088039.0 15744.0
551225.0 1088921.0 15680.0
553309.0 1090796.0 15802.0
546096.0 1084818.0 15831.0
547997.0 1086405.0 15718.0
549410.0 1087670.0 15800.0
549896.0 1088050.0 15715.0
550348.0 1088446.0 15698.0
552776.0 1090575.0 15729.0
553238.0 1090972.0 15694.0
553713.0 1091382.0 15667.0
545703.0 1084687.0 15642.0
547974.0 1086667.0 15824.0
549333.0 1087836.0 15674.0
549795.0 1088239.0 15815.0
550261.0 1088628.0 15643.0
545194.0 1084508.0 15680.0
548730.0 1087550.0 15705.0
552878.0 1091164.0 15694.0
548628.0 1087605.0 15666.0
544938.0 1084595.0 15747.0
545388.0 1084972.0 15698.0
552702.0 1091352.0 15736.0
552619.0 1091425.0 15823.0
545385.0 1085197.0 15673.0
551031.0 1090124.0 15648.0
552492.0 1091345.0 15660.0
551235.0 1090454.0 15813.0
546944.0 1086972.0 15766.0
552481.0 1091781.0 15824.0
553586.0 1092734.0 15783.0
546043.0 1086885.0 15805.0
549231.0 1089604.0 15835.0
551571.0 1091545.0 15721.0
553402.0 1093142.0 15673.0
546082.0 1087174.0 15678.0
549125.0 1089775.0 15689.0
553222.0 1093323.0 15675.0
547556.0 1088808.0 15715.0
546990.0 1088681.0 15826.0
547460.0 1089049.0 15836.0
553931.0 1094626.0 15650.0
546702.0 1088668.0 15830.0
549212.0 1090808.0 15823.0
550269.0 1091718.0 15697.0
549218.0 1090914.0 15723.0
549202.0 1091036.0 15760.0
550856.0 1092991.0 15836.0
551364.0 1093685.0 15795.0
546269.0 1089566.0 15671.0
549013.0 1091992.0 15762.0
550918.0 1093525.0 15700.0
548532.0 1091699.0 15724.0
546825.0 1090867.0 15782.0
551855.0 1095034.0 15722.0
545426.0 1089857.0 15655.0
546920.0 1091098.0 15694.0
545352.0 1090017.0 15725.0
546714.0 1091208.0 15758.0
549989.0 1093907.0 15689.0
543610.0 1088876.0 15790.0
550858.0 1095184.0 15760.0
550198.0 1094808.0 15772.0
543761.0 1089595.0 15821.0
544199.0 1089968.0 15820.0
550067.0 1094791.0 15730.0
551456.0 1095916.0 15736.0
543819.0 1089837.0 15811.0
547784.0 1093080.0 15770.0
551308.0 1096024.0 15833.0
543944.0 1090086.0 15704.0
551690.0 1096621.0 15834.0
542935.0 1089557.0 15819.0
547039.0 1092783.0 15753.0
549294.0 1094708.0 15671.0
550735.0 1096120.0 15656.0
550801.0 1097053.0 15836.0
544378.0 1092832.0 15828.0
549697.0 1097233.0 15816.0
551037.0 1098546.0 15809.0
548780.0 1096772.0 15761.0
549734.0 1097504.0 15826.0
551083.0 1098697.0 15743.0
548840.0 1097037.0 15755.0
550260.0 1098454.0 15814.0
548494.0 1097207.0 15781.0
550366.0 1098671.0 15651.0
544775.0 1094417.0 15836.0
549059.0 1098030.0 15691.0
544643.0 1094721.0 15744.0
544427.0 1094828.0 15750.0
544276.0 1094990.0 15765.0
548232.0 1098135.0 15677.0
544181.0 1095158.0 15645.0
543584.0 1094932.0 15688.0
548859.0 1099172.0 15742.0
546504.0 1097551.0 15716.0
546485.0 1097717.0 15684.0
546532.0 1097947.0 15684.0
546649.0 1098386.0 15710.0
544762.0 1097073.0 15758.0
547700.0 1099585.0 15731.0
545596.0 1098371.0 15802.0
545289.0 1098756.0 15825.0
553194.0 1095664.0 15768.0
553707.0 1093047.0 15760.0
554091.0 1091237.0 15810.0
553426.0 1092952.0 15694.0
553152.0 1093094.0 15773.0
553503.0 1090939.0 15641.0
553077.0 1091871.0 15647.0
552059.0 1095585.0 15686.0
552558.0 1093374.0 15688.0
553016.0 1091044.0 15658.0
553118.0 1090600.0 15698.0
551660.0 1096597.0 15647.0
552062.0 1094927.0 15792.0
552822.0 1091079.0 15769.0
552910.0 1090646.0 15772.0
551502.0 1096560.0 15715.0
552730.0 1090306.0 15746.0
551290.0 1096611.0 15684.0
551390.0 1096170.0 15837.0
552276.0 1091629.0 15770.0
551189.0 1095854.0 15641.0
551147.0 1094981.0 15757.0
551293.0 1094104.0 15736.0
551365.0 1093645.0 15667.0
551873.0 1091375.0 15821.0
550192.0 1098440.0 15724.0
550402.0 1097483.0 15804.0
550986.0 1094246.0 15699.0
551104.0 1093755.0 15823.0
550802.0 1093200.0 15660.0
550982.0 1092826.0 15776.0
550551.0 1093001.0 15658.0
551426.0 1088893.0 15793.0
549547.0 1096938.0 15782.0
550120.0 1094084.0 15776.0
551204.0 1088601.0 15801.0
550927.0 1088245.0 15698.0
548562.0 1098902.0 15697.0
548680.0 1098450.0 15809.0
550680.0 1088101.0 15703.0
548778.0 1096803.0 15798.0
550310.0 1088468.0 15638.0
550745.0 1086271.0 15646.0
549776.0 1090033.0 15669.0
550161.0 1088311.0 15735.0
550218.0 1087862.0 15649.0
550295.0 1087436.0 15646.0
550401.0 1087017.0 15647.0
550512.0 1086605.0 15689.0
550539.0 1086220.0 15660.0
551084.0 1083697.0 15716.0
548850.0 1094100.0 15770.0
549479.0 1090402.0 15723.0
549603.0 1090034.0 15749.0
549887.0 1088675.0 15700.0
550067.0 1087713.0 15685.0
550185.0 1087282.0 15736.0
548883.0 1092415.0 15658.0
549011.0 1091977.0 15821.0
549049.0 1091552.0 15681.0
549379.0 1090062.0 15755.0
549464.0 1089676.0 15821.0
549817.0 1087790.0 15696.0
550185.0 1085930.0 15687.0
550259.0 1085484.0 15660.0
550532.0 1084132.0 15686.0
550661.0 1083695.0 15702.0
547433.0 1099406.0 15659.0
548834.0 1091526.0 15756.0
549174.0 1089831.0 15685.0
549942.0 1085944.0 15745.0
550487.0 1083447.0 15663.0
548544.0 1091935.0 15836.0
548608.0 1091525.0 15800.0
549281.0 1087862.0 15722.0
549580.0 1086500.0 15820.0
547659.0 1094663.0 15661.0
548996.0 1087756.0 15645.0
549735.0 1084620.0 15737.0
546749.0 1098641.0 15711.0
548436.0 1089552.0 15736.0
548801.0 1087485.0 15709.0
546585.0 1098481.0 15831.0
547352.0 1093819.0 15689.0
547489.0 1092940.0 15690.0
548458.0 1087935.0 15679.0
548568.0 1087486.0 15753.0
548941.0 1085656.0 15759.0
548994.0 1085217.0 15695.0
548044.0 1085877.0 15646.0
548247.0 1084958.0 15742.0
548319.0 1084490.0 15725.0
548518.0 1084082.0 15818.0
547147.0 1089131.0 15644.0
547977.0 1085012.0 15811.0
546846.0 1088684.0 15747.0
547732.0 1084394.0 15763.0
547041.0 1086368.0 15678.0
547147.0 1085900.0 15737.0
547263.0 1085442.0 15804.0
546170.0 1089562.0 15659.0
546758.0 1086782.0 15802.0
546559.0 1086643.0 15824.0
546250.0 1087048.0 15689.0
546360.0 1086631.0 15829.0
544581.0 1094916.0 15638.0
546125.0 1086831.0 15790.0
544315.0 1095080.0 15671.0
545906.0 1086279.0 15706.0
546327.0 1084599.0 15812.0
544041.0 1095002.0 15736.0
545901.0 1084773.0 15668.0
546016.0 1084357.0 15774.0
544295.0 1091540.0 15766.0
545362.0 1085922.0 15697.0
545488.0 1084982.0 15706.0
545580.0 1084515.0 15697.0
545151.0 1085501.0 15828.0
545203.0 1084666.0 15639.0
544825.0 1085213.0 15730.0
544890.0 1084747.0 15648.0
543683.0 1088723.0 15746.0
543174.0 1090660.0 15809.0
547371.0 1099780.0 15813.0
547582.0 1099608.0 15735.0
546801.0 1098183.0 15679.0
548527.0 1098372.0 15753.0
546681.0 1097564.0 15769.0
551253.0 1098801.0 15754.0
550190.0 1098312.0 15801.0
543627.0 1095148.0 15749.0
544296.0 1095228.0 15649.0
550034.0 1097465.0 15757.0
544495.0 1095054.0 15673.0
550622.0 1097519.0 15690.0
544434.0 1094803.0 15825.0
553033.0 1097713.0 15669.0
548317.0 1095815.0 15676.0
547617.0 1094787.0 15697.0
551338.0 1095989.0 15744.0
542931.0 1092277.0 15816.0
547359.0 1093933.0 15714.0
542815.0 1092007.0 15675.0
550919.0 1095113.0 15796.0
550145.0 1094833.0 15709.0
548422.0 1093817.0 15827.0
547602.0 1093503.0 15723.0
550162.0 1094393.0 15690.0
547529.0 1093235.0 15785.0
547531.0 1093025.0 15674.0
551335.0 1094335.0 15686.0
550985.0 1094175.0 15784.0
543638.0 1090717.0 15656.0
552978.0 1094346.0 15761.0
552647.0 1094181.0 15784.0
551182.0 1093620.0 15736.0
550841.0 1093440.0 15797.0
542445.0 1089890.0 15645.0
550723.0 1093110.0 15685.0
544102.0 1090270.0 15751.0
552413.0 1093547.0 15793.0
550864.0 1092955.0 15765.0
546847.0 1091283.0 15744.0
543842.0 1089955.0 15775.0
550873.0 1092714.0 15745.0
547158.0 1091105.0 15828.0
543054.0 1089362.0 15787.0
548893.0 1091652.0 15772.0
548503.0 1091494.0 15673.0
548991.0 1091459.0 15763.0
545287.0 1089892.0 15666.0
544937.0 1089753.0 15825.0
547120.0 1090474.0 15638.0
544240.0 1089154.0 15793.0
546098.0 1089623.0 15753.0
543765.0 1088681.0 15649.0
543377.0 1088476.0 15802.0
544648.0 1088696.0 15815.0
553155.0 1091979.0 15723.0
552824.0 1091811.0 15788.0
552450.0 1091674.0 15821.0
553105.0 1091602.0 15746.0
549329.0 1090035.0 15741.0
546603.0 1088937.0 15690.0
551462.0 1090673.0 15805.0
549635.0 1089947.0 15683.0
552876.0 1090910.0 15787.0
547691.0 1088863.0 15688.0
553624.0 1090933.0 15696.0
553208.0 1090818.0 15648.0
552840.0 1090685.0 15672.0
552792.0 1090320.0 15736.0
550069.0 1088535.0 15773.0
546255.0 1086941.0 15727.0
551319.0 1088879.0 15638.0
551042.0 1088647.0 15776.0
550249.0 1088413.0 15682.0
546905.0 1086929.0 15815.0
546561.0 1086802.0 15790.0
551423.0 1088621.0 15716.0
551038.0 1088505.0 15673.0
550697.0 1088320.0 15699.0
550304.0 1088180.0 15686.0
549965.0 1088012.0 15763.0
549601.0 1087823.0 15832.0
549196.0 1087753.0 15697.0
548864.0 1087589.0 15687.0
547015.0 1086766.0 15771.0
546666.0 1086645.0 15773.0
545912.0 1086371.0 15678.0
551499.0 1088430.0 15748.0
550776.0 1088122.0 15657.0
550007.0 1087767.0 15749.0
549229.0 1087455.0 15801.0
548850.0 1087266.0 15817.0
545785.0 1086028.0 15753.0
550162.0 1087192.0 15779.0
547179.0 1085958.0 15707.0
550382.0 1086915.0 15805.0
549222.0 1086469.0 15771.0
548121.0 1086007.0 15778.0
547331.0 1085753.0 15638.0
549549.0 1086424.0 15655.0
547317.0 1085483.0 15739.0
548078.0 1085616.0 15677.0
547305.0 1085300.0 15705.0
550757.0 1086470.0 15785.0
550441.0 1086326.0 15661.0
550053.0 1086157.0 15794.0
547372.0 1085076.0 15791.0
550065.0 1085910.0 15747.0
548961.0 1085488.0 15649.0
545977.0 1084231.0 15707.0
548951.0 1085196.0 15717.0
548558.0 1085021.0 15776.0
548195.0 1084856.0 15787.0
547783.0 1084721.0 15654.0
547437.0 1084554.0 15743.0
549500.0 1085123.0 15723.0
549175.0 1084971.0 15781.0
548381.0 1084708.0 15737.0
547612.0 1084387.0 15713.0
549803.0 1084991.0 15776.0
550010.0 1084576.0 15654.0
548521.0 1083983.0 15717.0
550052.0 1084317.0 15645.0
550516.0 1084103.0 15794.0
549096.0 1083511.0 15811.0
550605.0 1083832.0 15726.0
542833.0 1091919.0 15536.0
543417.0 1097795.0 15554.0
543569.0 1090809.0 15615.0
543981.0 1094833.0 15509.0
544050.0 1095608.0 15543.0
543542.0 1088266.0 15628.0
543962.0 1091685.0 15488.0
543985.0 1090244.0 15540.0
544018.0 1091717.0 15578.0
544345.0 1095330.0 15587.0
544325.0 1092930.0 15593.0
544323.0 1088516.0 15441.0
544901.0 1087449.0 15531.0
545272.0 1084781.0 15475.0
545364.0 1084769.0 15599.0
545559.0 1086270.0 15591.0
545498.0 1084655.0 15501.0
545649.0 1086315.0 15576.0
545658.0 1084997.0 15585.0
545903.0 1085056.0 15503.0
545961.0 1085770.0 15464.0
546165.0 1085271.0 15468.0
546408.0 1087765.0 15542.0
546868.0 1091922.0 15498.0
547083.0 1091979.0 15506.0
547480.0 1093587.0 15629.0
547163.0 1089689.0 15637.0
547300.0 1089163.0 15505.0
548189.0 1097688.0 15457.0
547187.0 1086450.0 15472.0
547151.0 1086116.0 15566.0
548360.0 1096909.0 15441.0
547337.0 1086435.0 15486.0
548480.0 1096803.0 15519.0
548557.0 1096991.0 15598.0
547346.0 1084188.0 15537.0
548197.0 1089593.0 15574.0
548412.0 1089681.0 15553.0
548381.0 1087938.0 15493.0
549197.0 1094774.0 15446.0
548510.0 1087955.0 15501.0
548995.0 1092340.0 15518.0
548675.0 1088176.0 15541.0
548941.0 1090498.0 15633.0
549464.0 1094944.0 15481.0
549660.0 1097206.0 15542.0
548828.0 1088013.0 15592.0
548555.0 1083882.0 15542.0
549528.0 1090059.0 15637.0
550620.0 1098997.0 15449.0
550787.0 1094967.0 15504.0
549530.0 1084257.0 15586.0
550659.0 1093075.0 15562.0
549563.0 1083325.0 15562.0
550351.0 1088953.0 15464.0
549777.0 1083204.0 15569.0
550512.0 1088648.0 15574.0
549851.0 1083177.0 15603.0
550015.0 1084130.0 15483.0
550661.0 1088843.0 15482.0
550717.0 1088687.0 15474.0
550616.0 1087552.0 15561.0
550418.0 1085470.0 15540.0
550987.0 1089180.0 15512.0
551058.0 1090131.0 15628.0
550625.0 1085440.0 15440.0
550939.0 1087839.0 15559.0
551800.0 1094086.0 15468.0
551872.0 1095586.0 15543.0
551064.0 1087167.0 15589.0
551971.0 1093372.0 15452.0
551969.0 1091710.0 15578.0
552152.0 1093525.0 15604.0
552403.0 1093325.0 15519.0
553072.0 1097367.0 15477.0
553140.0 1096689.0 15441.0
552863.0 1093244.0 15489.0
553031.0 1093233.0 15580.0
553247.0 1092879.0 15583.0
553250.0 1090361.0 15611.0
553445.0 1091224.0 15493.0
553819.0 1093924.0 15438.0
553858.0 1094793.0 15634.0
553809.0 1093318.0 15596.0
549661.0 1082872.0 15566.0
549720.0 1083109.0 15580.0
550110.0 1083625.0 15442.0
549873.0 1083586.0 15447.0
549342.0 1083369.0 15546.0
548353.0 1083883.0 15517.0
550872.0 1086163.0 15558.0
550375.0 1085764.0 15621.0
550868.0 1086186.0 15439.0
549220.0 1085235.0 15635.0
550942.0 1087009.0 15532.0
547267.0 1084043.0 15603.0
551349.0 1087598.0 15608.0
551124.0 1087892.0 15606.0
548088.0 1085424.0 15503.0
551202.0 1088148.0 15619.0
548086.0 1085628.0 15536.0
552828.0 1089871.0 15544.0
547180.0 1085285.0 15467.0
551768.0 1089335.0 15592.0
550866.0 1088818.0 15546.0
546190.0 1085031.0 15465.0
547577.0 1086214.0 15492.0
551250.0 1089388.0 15463.0
553081.0 1091027.0 15487.0
545728.0 1084921.0 15590.0
547232.0 1086181.0 15505.0
547753.0 1086602.0 15495.0
549273.0 1087972.0 15615.0
550325.0 1088841.0 15516.0
545372.0 1084782.0 15574.0
545830.0 1085156.0 15541.0
547233.0 1086334.0 15493.0
549127.0 1087998.0 15562.0
545893.0 1085324.0 15470.0
547256.0 1086468.0 15460.0
548601.0 1087709.0 15621.0
544989.0 1084722.0 15575.0
545476.0 1085167.0 15631.0
547011.0 1086445.0 15598.0
548544.0 1087770.0 15588.0
550147.0 1089083.0 15472.0
551112.0 1090041.0 15596.0
544944.0 1084788.0 15497.0
545881.0 1085557.0 15550.0
548682.0 1087987.0 15538.0
548523.0 1087991.0 15491.0
548519.0 1088168.0 15467.0
549727.0 1089511.0 15514.0
545638.0 1086416.0 15505.0
553897.0 1093519.0 15445.0
548609.0 1089331.0 15502.0
551170.0 1091509.0 15549.0
552274.0 1092881.0 15623.0
552765.0 1093204.0 15487.0
553747.0 1094034.0 15459.0
552555.0 1093336.0 15573.0
547265.0 1089038.0 15626.0
552367.0 1093398.0 15541.0
545088.0 1087321.0 15463.0
547405.0 1089253.0 15448.0
552097.0 1093264.0 15448.0
552070.0 1093304.0 15448.0
546638.0 1088755.0 15460.0
549855.0 1092240.0 15493.0
548981.0 1092084.0 15603.0
550837.0 1093596.0 15584.0
551736.0 1094384.0 15494.0
546860.0 1090430.0 15507.0
548387.0 1091682.0 15457.0
551461.0 1094275.0 15582.0
549097.0 1092403.0 15457.0
551441.0 1094404.0 15547.0
551863.0 1094786.0 15506.0
543423.0 1088203.0 15607.0
543960.0 1088522.0 15560.0
550985.0 1094694.0 15529.0
544127.0 1089185.0 15512.0
546771.0 1091446.0 15614.0
550893.0 1094898.0 15556.0
551747.0 1095612.0 15584.0
553198.0 1096855.0 15526.0
546886.0 1091711.0 15477.0
551460.0 1095572.0 15614.0
546574.0 1091593.0 15494.0
553205.0 1097690.0 15528.0
543941.0 1090240.0 15565.0
549317.0 1094842.0 15502.0
547454.0 1093606.0 15472.0
549656.0 1095480.0 15539.0
550548.0 1096278.0 15624.0
542870.0 1091882.0 15523.0
550817.0 1098817.0 15498.0
548283.0 1098439.0 15577.0
544019.0 1095244.0 15542.0
543910.0 1095528.0 15503.0
545344.0 1097202.0 15503.0
547076.0 1098754.0 15439.0
546769.0 1098729.0 15599.0
547414.0 1099395.0 15454.0
545262.0 1098972.0 15623.0
543519.0 1097826.0 15561.0
553146.0 1097378.0 15591.0
553692.0 1094415.0 15558.0
553224.0 1093399.0 15454.0
552923.0 1093470.0 15459.0
552731.0 1093223.0 15469.0
553220.0 1090996.0 15571.0
553288.0 1090576.0 15582.0
552844.0 1091434.0 15481.0
552055.0 1094484.0 15465.0
552328.0 1093193.0 15564.0
551209.0 1097424.0 15519.0
551589.0 1095693.0 15544.0
551395.0 1095683.0 15587.0
551615.0 1094299.0 15514.0
550892.0 1097180.0 15558.0
551229.0 1095420.0 15534.0
551275.0 1095009.0 15529.0
551465.0 1094192.0 15612.0
551547.0 1093754.0 15577.0
551830.0 1092440.0 15503.0
550389.0 1098622.0 15572.0
550485.0 1098187.0 15595.0
550581.0 1097737.0 15609.0
550876.0 1095825.0 15486.0
550026.0 1098848.0 15440.0
550439.0 1097026.0 15528.0
550808.0 1094647.0 15443.0
552020.0 1088702.0 15624.0
551194.0 1091471.0 15614.0
551552.0 1088960.0 15438.0
551706.0 1088553.0 15546.0
550448.0 1093438.0 15576.0
549726.0 1095965.0 15635.0
549804.0 1095521.0 15541.0
550007.0 1094547.0 15598.0
551179.0 1088158.0 15547.0
550914.0 1087820.0 15468.0
549603.0 1093045.0 15482.0
550505.0 1088540.0 15512.0
550672.0 1087656.0 15489.0
549156.0 1094401.0 15589.0
550189.0 1088914.0 15565.0
550387.0 1088000.0 15597.0
550458.0 1087557.0 15545.0
550539.0 1087101.0 15454.0
550641.0 1086647.0 15622.0
548177.0 1098183.0 15483.0
549301.0 1092139.0 15513.0
550580.0 1085768.0 15477.0
547734.0 1099631.0 15557.0
549104.0 1092269.0 15577.0
549598.0 1089546.0 15458.0
550386.0 1085953.0 15616.0
550444.0 1085517.0 15579.0
550726.0 1084089.0 15624.0
550268.0 1085034.0 15466.0
550119.0 1084652.0 15499.0
547068.0 1099734.0 15551.0
549896.0 1084685.0 15619.0
546980.0 1098425.0 15499.0
547774.0 1093691.0 15499.0
547675.0 1093012.0 15531.0
548549.0 1088268.0 15533.0
548676.0 1087902.0 15571.0
549157.0 1085344.0 15444.0
549405.0 1084527.0 15596.0
549655.0 1082855.0 15474.0
546579.0 1097993.0 15606.0
546640.0 1097507.0 15601.0
548118.0 1089247.0 15506.0
548323.0 1088397.0 15442.0
547856.0 1089204.0 15503.0
547236.0 1091262.0 15548.0
546975.0 1091357.0 15582.0
547099.0 1090422.0 15449.0
548086.0 1085420.0 15508.0
546687.0 1091534.0 15625.0
547612.0 1086315.0 15496.0
547236.0 1086490.0 15506.0
547311.0 1086087.0 15500.0
547410.0 1085630.0 15557.0
545447.0 1094559.0 15573.0
546370.0 1089545.0 15464.0
546273.0 1087426.0 15511.0
546642.0 1084829.0 15611.0
544429.0 1095342.0 15470.0
546399.0 1084515.0 15447.0
545900.0 1085844.0 15452.0
546088.0 1084992.0 15489.0
546241.0 1084143.0 15516.0
543866.0 1095448.0 15469.0
545746.0 1085237.0 15505.0
546019.0 1083916.0 15619.0
543561.0 1095313.0 15574.0
544341.0 1088958.0 15492.0
544406.0 1088581.0 15542.0
545098.0 1085097.0 15573.0
543481.0 1088322.0 15547.0
547937.0 1099806.0 15578.0
547693.0 1099355.0 15470.0
550451.0 1098780.0 15536.0
550135.0 1098629.0 15578.0
550854.0 1098729.0 15539.0
550493.0 1098503.0 15582.0
543991.0 1095398.0 15527.0
548338.0 1097108.0 15476.0
543927.0 1095206.0 15540.0
548481.0 1096915.0 15475.0
550204.0 1097359.0 15513.0
548692.0 1096757.0 15515.0
544770.0 1095097.0 15475.0
549789.0 1095780.0 15499.0
551724.0 1095879.0 15479.0
551362.0 1095681.0 15620.0
551593.0 1095531.0 15483.0
551241.0 1095335.0 15610.0
547541.0 1093795.0 15576.0
551132.0 1095050.0 15507.0
549920.0 1094613.0 15464.0
543708.0 1091892.0 15510.0
551672.0 1095086.0 15526.0
550417.0 1094318.0 15484.0
550126.0 1094145.0 15629.0
550127.0 1093916.0 15485.0
547071.0 1092605.0 15463.0
551459.0 1094077.0 15587.0
550309.0 1093618.0 15562.0
551504.0 1093832.0 15557.0
550411.0 1093380.0 15540.0
549282.0 1092901.0 15510.0
553327.0 1094335.0 15499.0
549141.0 1092591.0 15441.0
546804.0 1091590.0 15456.0
553765.0 1094232.0 15524.0
549056.0 1092257.0 15580.0
544141.0 1090169.0 15488.0
552618.0 1093509.0 15546.0
552273.0 1093299.0 15620.0
544165.0 1089903.0 15631.0
553168.0 1093441.0 15594.0
552757.0 1093357.0 15542.0
552366.0 1093178.0 15547.0
551963.0 1093051.0 15495.0
547312.0 1091104.0 15631.0
553464.0 1093357.0 15526.0
553089.0 1093230.0 15551.0
552320.0 1092975.0 15501.0
550099.0 1092046.0 15443.0
548651.0 1091366.0 15603.0
553709.0 1093246.0 15465.0
553381.0 1093069.0 15585.0
553338.0 1092794.0 15454.0
543827.0 1088481.0 15464.0
543457.0 1088301.0 15587.0
552055.0 1091646.0 15483.0
552754.0 1091527.0 15619.0
552401.0 1091455.0 15514.0
547357.0 1089252.0 15611.0
552968.0 1091364.0 15557.0
547395.0 1089093.0 15536.0
551305.0 1090419.0 15506.0
548328.0 1088548.0 15458.0
552768.0 1090073.0 15578.0
550247.0 1089021.0 15476.0
546254.0 1087296.0 15545.0
550426.0 1088827.0 15475.0
548831.0 1088126.0 15540.0
548526.0 1088003.0 15596.0
551666.0 1089045.0 15493.0
549097.0 1087976.0 15623.0
548738.0 1087873.0 15551.0
546162.0 1086750.0 15624.0
552068.0 1088959.0 15527.0
551745.0 1088819.0 15572.0
551138.0 1088292.0 15614.0
550393.0 1088003.0 15599.0
551040.0 1087984.0 15463.0
550654.0 1087800.0 15606.0
550298.0 1087629.0 15617.0
547319.0 1086471.0 15463.0
545823.0 1085828.0 15447.0
545064.0 1085486.0 15456.0
545676.0 1085436.0 15444.0
544945.0 1085101.0 15555.0
545745.0 1085113.0 15515.0
550595.0 1086924.0 15458.0
548057.0 1085830.0 15598.0
545838.0 1084899.0 15550.0
545102.0 1084646.0 15546.0
546253.0 1084915.0 15470.0
545898.0 1084824.0 15457.0
545531.0 1084646.0 15514.0
546557.0 1084849.0 15469.0
545803.0 1084541.0 15511.0
550440.0 1086122.0 15503.0
549243.0 1085623.0 15608.0
546323.0 1084471.0 15485.0
550336.0 1085792.0 15632.0
550289.0 1085498.0 15616.0
550480.0 1085385.0 15466.0
547899.0 1084289.0 15543.0
547552.0 1084193.0 15496.0
549567.0 1084705.0 15633.0
549228.0 1084574.0 15612.0
549565.0 1084522.0 15438.0
548934.0 1083944.0 15446.0
549063.0 1083308.0 15535.0
550632.0 1083565.0 15629.0
550794.0 1083438.0 15522.0
542922.0 1089181.0 15348.0
543826.0 1094977.0 15263.0
543881.0 1095677.0 15340.0
544166.0 1089346.0 15425.0
544275.0 1090217.0 15263.0
544252.0 1088479.0 15331.0
544941.0 1091562.0 15262.0
544620.0 1085868.0 15251.0
546017.0 1098260.0 15304.0
545436.0 1089686.0 15373.0
545191.0 1085185.0 15371.0
545298.0 1086007.0 15275.0
545457.0 1087547.0 15262.0
546422.0 1097928.0 15297.0
545455.0 1085610.0 15289.0
545516.0 1086503.0 15278.0
545691.0 1086984.0 15322.0
545690.0 1085493.0 15238.0
545813.0 1087143.0 15406.0
545855.0 1085871.0 15383.0
546639.0 1091682.0 15419.0
546763.0 1090284.0 15300.0
547836.0 1098662.0 15307.0
547907.0 1099483.0 15298.0
546586.0 1084642.0 15314.0
547289.0 1091406.0 15337.0
547975.0 1097943.0 15275.0
548014.0 1098649.0 15353.0
546717.0 1084609.0 15312.0
547853.0 1095487.0 15361.0
548093.0 1097110.0 15255.0
548090.0 1097933.0 15383.0
548211.0 1098741.0 15331.0
546879.0 1084674.0 15257.0
548169.0 1096857.0 15273.0
548299.0 1098536.0 15304.0
547048.0 1084941.0 15243.0
547103.0 1085700.0 15299.0
547581.0 1089435.0 15250.0
548276.0 1096819.0 15367.0
548488.0 1098954.0 15300.0
547129.0 1085241.0 15344.0
547362.0 1086946.0 15267.0
547630.0 1089445.0 15385.0
547202.0 1084631.0 15294.0
548035.0 1091699.0 15243.0
548791.0 1099274.0 15267.0
547253.0 1084308.0 15313.0
547308.0 1085086.0 15415.0
547518.0 1086614.0 15414.0
547902.0 1089604.0 15320.0
547700.0 1086758.0 15425.0
547831.0 1085988.0 15365.0
548162.0 1088686.0 15285.0
548050.0 1085832.0 15300.0
549367.0 1095538.0 15251.0
549695.0 1098810.0 15268.0
548293.0 1085194.0 15272.0
549394.0 1095030.0 15244.0
549397.0 1092293.0 15422.0
549881.0 1094749.0 15419.0
549937.0 1092358.0 15279.0
550393.0 1096819.0 15392.0
548985.0 1083045.0 15261.0
550105.0 1091918.0 15271.0
549982.0 1089501.0 15397.0
550439.0 1093080.0 15327.0
550834.0 1096620.0 15255.0
550672.0 1093383.0 15256.0
549636.0 1082984.0 15429.0
549967.0 1084114.0 15421.0
550534.0 1087021.0 15319.0
550855.0 1089755.0 15266.0
550091.0 1083840.0 15346.0
550355.0 1085409.0 15378.0
550140.0 1083847.0 15351.0
551066.0 1090173.0 15240.0
550789.0 1087316.0 15298.0
550401.0 1083826.0 15422.0
551204.0 1089402.0 15398.0
551093.0 1086237.0 15250.0
551593.0 1089847.0 15265.0
552130.0 1094258.0 15267.0
552563.0 1097646.0 15264.0
551786.0 1089789.0 15245.0
552187.0 1092615.0 15259.0
552742.0 1097111.0 15274.0
552248.0 1091751.0 15431.0
552955.0 1097125.0 15321.0
552599.0 1093050.0 15365.0
552743.0 1093944.0 15259.0
553038.0 1096544.0 15308.0
552520.0 1091217.0 15317.0
552733.0 1093018.0 15319.0
552857.0 1093942.0 15260.0
552090.0 1086829.0 15272.0
552229.0 1086873.0 15304.0
553684.0 1097576.0 15299.0
553739.0 1095603.0 15257.0
553733.0 1093836.0 15262.0
554183.0 1095184.0 15250.0
553799.0 1091637.0 15331.0
554308.0 1095590.0 15248.0
553848.0 1091552.0 15286.0
554327.0 1095170.0 15289.0
554481.0 1095270.0 15261.0
554538.0 1095049.0 15431.0
550273.0 1083527.0 15271.0
550777.0 1084429.0 15405.0
548887.0 1082829.0 15267.0
549896.0 1083794.0 15410.0
548911.0 1083176.0 15412.0
549386.0 1083555.0 15435.0
550582.0 1085161.0 15375.0
551048.0 1085603.0 15423.0
552107.0 1086556.0 15356.0
550773.0 1085515.0 15386.0
552240.0 1086797.0 15251.0
550846.0 1085700.0 15322.0
548996.0 1084414.0 15248.0
551863.0 1086970.0 15316.0
547771.0 1084047.0 15328.0
551241.0 1087569.0 15313.0
550758.0 1087370.0 15267.0
547131.0 1084465.0 15270.0
547172.0 1084713.0 15290.0
546544.0 1084470.0 15338.0
547040.0 1084827.0 15272.0
548901.0 1086410.0 15248.0
546727.0 1084784.0 15273.0
550799.0 1088410.0 15425.0
546706.0 1085067.0 15239.0
547112.0 1085497.0 15379.0
551859.0 1089578.0 15313.0
547141.0 1085743.0 15257.0
550786.0 1088984.0 15434.0
546273.0 1085300.0 15412.0
550883.0 1089233.0 15436.0
551370.0 1089717.0 15378.0
547725.0 1086714.0 15348.0
551068.0 1089514.0 15257.0
551496.0 1089925.0 15276.0
552964.0 1091223.0 15354.0
550973.0 1089615.0 15307.0
546018.0 1085532.0 15426.0
547358.0 1086742.0 15335.0
552931.0 1091627.0 15408.0
544900.0 1084870.0 15419.0
545357.0 1085245.0 15319.0
545785.0 1085615.0 15398.0
547191.0 1086768.0 15359.0
550317.0 1089526.0 15434.0
550843.0 1089931.0 15350.0
550104.0 1089464.0 15339.0
550643.0 1089891.0 15243.0
548323.0 1088272.0 15419.0
545278.0 1085978.0 15277.0
549814.0 1089848.0 15399.0
552130.0 1091848.0 15285.0
545634.0 1086702.0 15275.0
548148.0 1088799.0 15323.0
552249.0 1092336.0 15289.0
553792.0 1093731.0 15398.0
545725.0 1087103.0 15348.0
549001.0 1089912.0 15335.0
545713.0 1087362.0 15273.0
547980.0 1089359.0 15411.0
548442.0 1089730.0 15427.0
548925.0 1090083.0 15297.0
550781.0 1091681.0 15295.0
552182.0 1092839.0 15245.0
553078.0 1093704.0 15369.0
554465.0 1094985.0 15397.0
547808.0 1089410.0 15357.0
548335.0 1089792.0 15292.0
550913.0 1091974.0 15295.0
552944.0 1093788.0 15331.0
553955.0 1094732.0 15357.0
554530.0 1095156.0 15274.0
545598.0 1087604.0 15258.0
547902.0 1089585.0 15325.0
552579.0 1093653.0 15397.0
554022.0 1094903.0 15419.0
554506.0 1095297.0 15343.0
545267.0 1087478.0 15291.0
552545.0 1093694.0 15378.0
553014.0 1094036.0 15294.0
553919.0 1094896.0 15370.0
554390.0 1095287.0 15367.0
545115.0 1087482.0 15338.0
547120.0 1089157.0 15348.0
552705.0 1093884.0 15281.0
554262.0 1095232.0 15263.0
546753.0 1088952.0 15303.0
547201.0 1089308.0 15266.0
553754.0 1094969.0 15260.0
550062.0 1092112.0 15384.0
553760.0 1095220.0 15358.0
550508.0 1093048.0 15409.0
551979.0 1094240.0 15350.0
546355.0 1089711.0 15337.0
548105.0 1091224.0 15370.0
549531.0 1092385.0 15357.0
550451.0 1093141.0 15331.0
548971.0 1092084.0 15426.0
549437.0 1092498.0 15357.0
544064.0 1088141.0 15250.0
548185.0 1091599.0 15341.0
543820.0 1088189.0 15407.0
544262.0 1088552.0 15417.0
549206.0 1092607.0 15334.0
549018.0 1092630.0 15286.0
547289.0 1091452.0 15300.0
551453.0 1094998.0 15390.0
553582.0 1097271.0 15293.0
547057.0 1091904.0 15272.0
550789.0 1095076.0 15323.0
553121.0 1097064.0 15351.0
546542.0 1091661.0 15412.0
552921.0 1097017.0 15328.0
553369.0 1097365.0 15327.0
552949.0 1097204.0 15332.0
550884.0 1095690.0 15430.0
552796.0 1097239.0 15270.0
549762.0 1094983.0 15416.0
550726.0 1095705.0 15300.0
549834.0 1095161.0 15310.0
544996.0 1091441.0 15280.0
549169.0 1094800.0 15267.0
543863.0 1091412.0 15306.0
549865.0 1096650.0 15318.0
550994.0 1097780.0 15242.0
550784.0 1097808.0 15333.0
544266.0 1092657.0 15248.0
549607.0 1097173.0 15425.0
549776.0 1097418.0 15334.0
545381.0 1094486.0 15376.0
548148.0 1096701.0 15347.0
550896.0 1098978.0 15391.0
550683.0 1098961.0 15391.0
548172.0 1097154.0 15376.0
548068.0 1097543.0 15288.0
547908.0 1098014.0 15390.0
548025.0 1098368.0 15356.0
548446.0 1098768.0 15372.0
543726.0 1095123.0 15298.0
544160.0 1095540.0 15378.0
548088.0 1098638.0 15351.0
548565.0 1099020.0 15321.0
547962.0 1098713.0 15387.0
548433.0 1099067.0 15250.0
543962.0 1095748.0 15335.0
546230.0 1097530.0 15360.0
547945.0 1098884.0 15335.0
543821.0 1095744.0 15263.0
546263.0 1097673.0 15278.0
547706.0 1098834.0 15265.0
546303.0 1097892.0 15291.0
546276.0 1098265.0 15345.0
554662.0 1094832.0 15287.0
553545.0 1094790.0 15274.0
553788.0 1093564.0 15273.0
553898.0 1093134.0 15377.0
552801.0 1097029.0 15309.0
553519.0 1093435.0 15424.0
553019.0 1094245.0 15303.0
553082.0 1092608.0 15369.0
552630.0 1093680.0 15409.0
551687.0 1096146.0 15333.0
551761.0 1095752.0 15430.0
552329.0 1092784.0 15417.0
552616.0 1091516.0 15409.0
550881.0 1098802.0 15390.0
551727.0 1094742.0 15428.0
551789.0 1094275.0 15342.0
552322.0 1091619.0 15356.0
550676.0 1098873.0 15316.0
551431.0 1095208.0 15415.0
551921.0 1092509.0 15333.0
550721.0 1097590.0 15242.0
550817.0 1096727.0 15280.0
551575.0 1092245.0 15422.0
552021.0 1089970.0 15400.0
552034.0 1089547.0 15263.0
551776.0 1089548.0 15376.0
551404.0 1089753.0 15353.0
550747.0 1091590.0 15312.0
551078.0 1089800.0 15306.0
550140.0 1093151.0 15382.0
550827.0 1089481.0 15268.0
549846.0 1092892.0 15299.0
550495.0 1089488.0 15259.0
550617.0 1089054.0 15366.0
550728.0 1088673.0 15424.0
549622.0 1092570.0 15266.0
550388.0 1088999.0 15429.0
550672.0 1087189.0 15291.0
550861.0 1086322.0 15309.0
548000.0 1100056.0 15309.0
548283.0 1098628.0 15402.0
549403.0 1092591.0 15368.0
550003.0 1089387.0 15319.0
550744.0 1085757.0 15342.0
548392.0 1096865.0 15375.0
549211.0 1092565.0 15405.0
549333.0 1091710.0 15367.0
549751.0 1089552.0 15290.0
549882.0 1089163.0 15429.0
550624.0 1085331.0 15344.0
547764.0 1099178.0 15331.0
547868.0 1098702.0 15353.0
547964.0 1098238.0 15352.0
548054.0 1097786.0 15329.0
548973.0 1092716.0 15390.0
550463.0 1085026.0 15304.0
550550.0 1084567.0 15245.0
550683.0 1083679.0 15252.0
547604.0 1099077.0 15373.0
547663.0 1098568.0 15370.0
547827.0 1097598.0 15282.0
550352.0 1084588.0 15325.0
547315.0 1098890.0 15282.0
548964.0 1090169.0 15293.0
547865.0 1093250.0 15409.0
548098.0 1091863.0 15290.0
548271.0 1090955.0 15327.0
548602.0 1089101.0 15399.0
549607.0 1084061.0 15287.0
547537.0 1093826.0 15422.0
547851.0 1091682.0 15268.0
548060.0 1090880.0 15432.0
548310.0 1089128.0 15349.0
549047.0 1085746.0 15406.0
549349.0 1084078.0 15295.0
549420.0 1083650.0 15327.0
549531.0 1083216.0 15382.0
549282.0 1083435.0 15413.0
547165.0 1092486.0 15284.0
547053.0 1091705.0 15287.0
548195.0 1085634.0 15272.0
546770.0 1091799.0 15275.0
547723.0 1086754.0 15249.0
547869.0 1086313.0 15420.0
547437.0 1086796.0 15273.0
546569.0 1089471.0 15304.0
547172.0 1084967.0 15432.0
547366.0 1084091.0 15278.0
547029.0 1084474.0 15291.0
546086.0 1085882.0 15286.0
546189.0 1085414.0 15316.0
545533.0 1087558.0 15239.0
545707.0 1086706.0 15361.0
545974.0 1085407.0 15392.0
543425.0 1097827.0 15347.0
545340.0 1086631.0 15249.0
545604.0 1085710.0 15410.0
545027.0 1086763.0 15263.0
545099.0 1086324.0 15271.0
545255.0 1085436.0 15327.0
544878.0 1085909.0 15286.0
544065.0 1088383.0 15298.0
543814.0 1088506.0 15331.0
543616.0 1088245.0 15327.0
543526.0 1097560.0 15334.0
547944.0 1099135.0 15300.0
548320.0 1098917.0 15332.0
547954.0 1098801.0 15332.0
546181.0 1097770.0 15284.0
548136.0 1098305.0 15419.0
550116.0 1098947.0 15331.0
548121.0 1098149.0 15385.0
548128.0 1097920.0 15337.0
543806.0 1095669.0 15335.0
543497.0 1095076.0 15257.0
549759.0 1097297.0 15267.0
547564.0 1095582.0 15245.0
553354.0 1097362.0 15308.0
553008.0 1097246.0 15255.0
552862.0 1096781.0 15331.0
549758.0 1095478.0 15407.0
544333.0 1092727.0 15344.0
549098.0 1094387.0 15258.0
551286.0 1094969.0 15351.0
554070.0 1095893.0 15274.0
551872.0 1094991.0 15427.0
552037.0 1094824.0 15325.0
551707.0 1094620.0 15403.0
551798.0 1094318.0 15357.0
553675.0 1094762.0 15340.0
551823.0 1094080.0 15249.0
548922.0 1092861.0 15251.0
547103.0 1091983.0 15419.0
546798.0 1091823.0 15419.0
553711.0 1094497.0 15435.0
552959.0 1094210.0 15242.0
551070.0 1093409.0 15285.0
550256.0 1093088.0 15353.0
549494.0 1092768.0 15357.0
547163.0 1091830.0 15254.0
551149.0 1093268.0 15307.0
549715.0 1092657.0 15249.0
549361.0 1092454.0 15383.0
547138.0 1091524.0 15387.0
552959.0 1093739.0 15297.0
549290.0 1092177.0 15417.0
553853.0 1093904.0 15242.0
553799.0 1093585.0 15297.0
552695.0 1093140.0 15327.0
551937.0 1092857.0 15311.0
549333.0 1091758.0 15372.0
548193.0 1091303.0 15318.0
542968.0 1089082.0 15259.0
552204.0 1092737.0 15300.0
549322.0 1091513.0 15262.0
551057.0 1091883.0 15259.0
544477.0 1089121.0 15404.0
553741.0 1092717.0 15266.0
546394.0 1089630.0 15350.0
544222.0 1088639.0 15385.0
550646.0 1091091.0 15312.0
544004.0 1088321.0 15289.0
554006.0 1091906.0 15275.0
549233.0 1089945.0 15353.0
548115.0 1089388.0 15437.0
553529.0 1091298.0 15419.0
550956.0 1090349.0 15255.0
549865.0 1089864.0 15386.0
550072.0 1089683.0 15248.0
548165.0 1088888.0 15268.0
545095.0 1087546.0 15294.0
553462.0 1090775.0 15263.0
551330.0 1089826.0 15368.0
549836.0 1089262.0 15339.0
552024.0 1089783.0 15309.0
551651.0 1089680.0 15342.0
551290.0 1089553.0 15269.0
550574.0 1089176.0 15427.0
548369.0 1088312.0 15409.0
545487.0 1087111.0 15253.0
551896.0 1089447.0 15370.0
551515.0 1089301.0 15365.0
550772.0 1088948.0 15371.0
545764.0 1086962.0 15295.0
550590.0 1088706.0 15396.0
545759.0 1086683.0 15372.0
545462.0 1086453.0 15429.0
545089.0 1086333.0 15355.0
545496.0 1086347.0 15359.0
547284.0 1086882.0 15260.0
545263.0 1086023.0 15243.0
551363.0 1088208.0 15300.0
547655.0 1086595.0 15384.0
550787.0 1087598.0 15353.0
548214.0 1086552.0 15369.0
547864.0 1086374.0 15425.0
546058.0 1085701.0 15262.0
545284.0 1085380.0 15278.0
551455.0 1087554.0 15355.0
546102.0 1085331.0 15374.0
544997.0 1084933.0 15317.0
546192.0 1085101.0 15433.0
545430.0 1084872.0 15382.0
550584.0 1086768.0 15393.0
551861.0 1087065.0 15326.0
546910.0 1085080.0 15252.0
546196.0 1084774.0 15314.0
552156.0 1086968.0 15299.0
551817.0 1086828.0 15267.0
550780.0 1086380.0 15297.0
548170.0 1085306.0 15410.0
550718.0 1086035.0 15368.0
549203.0 1085445.0 15338.0
547029.0 1084558.0 15310.0
546324.0 1084224.0 15426.0
550653.0 1085721.0 15424.0
550808.0 1085588.0 15290.0
550601.0 1085241.0 15334.0
547664.0 1084043.0 15292.0
549230.0 1084369.0 15432.0
548050.0 1083929.0 15342.0
547677.0 1083824.0 15249.0
549284.0 1084129.0 15289.0
550107.0 1084081.0 15421.0
549386.0 1083487.0 15345.0
543569.0 1095650.0 15158.0
543653.0 1095377.0 15212.0
543843.0 1088012.0 15215.0
544265.0 1092420.0 15086.0
544030.0 1087944.0 15080.0
544476.0 1089980.0 15079.0
544618.0 1090107.0 15075.0
544853.0 1091839.0 15092.0
544617.0 1085118.0 15048.0
544825.0 1087362.0 15093.0
545087.0 1086129.0 15193.0
545247.0 1087005.0 15131.0
546223.0 1097433.0 15166.0
545431.0 1086774.0 15206.0
545661.0 1087360.0 15228.0
545596.0 1085512.0 15122.0
545850.0 1087682.0 15122.0
546927.0 1099223.0 15206.0
547071.0 1099263.0 15167.0
546096.0 1087580.0 15056.0
546538.0 1091854.0 15198.0
547265.0 1099357.0 15097.0
546383.0 1088007.0 15134.0
547445.0 1099518.0 15200.0
546343.0 1086038.0 15065.0
547684.0 1099140.0 15173.0
547971.0 1097208.0 15046.0
548142.0 1099352.0 15169.0
546872.0 1085464.0 15216.0
547515.0 1091392.0 15221.0
546982.0 1085560.0 15228.0
547280.0 1087367.0 15041.0
547011.0 1084158.0 15065.0
547306.0 1087175.0 15174.0
547771.0 1090960.0 15118.0
547831.0 1091701.0 15176.0
547080.0 1084355.0 15209.0
547813.0 1090314.0 15045.0
547984.0 1091979.0 15217.0
548719.0 1099295.0 15093.0
547038.0 1082765.0 15135.0
547970.0 1090820.0 15170.0
547129.0 1082738.0 15163.0
547998.0 1088472.0 15153.0
548898.0 1092698.0 15223.0
549450.0 1097114.0 15056.0
549549.0 1098535.0 15143.0
549563.0 1097229.0 15092.0
548969.0 1090591.0 15059.0
549705.0 1097543.0 15132.0
549822.0 1098381.0 15043.0
549243.0 1091223.0 15137.0
548754.0 1086288.0 15096.0
549469.0 1091406.0 15078.0
550253.0 1092747.0 15116.0
549194.0 1083001.0 15233.0
550271.0 1092190.0 15229.0
550291.0 1089591.0 15138.0
550475.0 1091892.0 15196.0
550407.0 1089593.0 15142.0
549884.0 1084257.0 15148.0
550535.0 1089832.0 15219.0
550768.0 1091650.0 15169.0
550718.0 1089989.0 15212.0
550776.0 1089464.0 15099.0
551018.0 1090185.0 15211.0
551327.0 1091965.0 15140.0
551405.0 1091990.0 15225.0
551692.0 1092495.0 15207.0
552276.0 1097090.0 15123.0
550861.0 1084373.0 15203.0
550986.0 1085293.0 15225.0
551941.0 1092488.0 15179.0
552488.0 1096821.0 15142.0
551391.0 1086060.0 15126.0
552703.0 1096245.0 15135.0
551409.0 1085391.0 15210.0
551586.0 1086203.0 15112.0
552433.0 1092527.0 15183.0
552650.0 1094084.0 15137.0
552794.0 1094826.0 15067.0
552905.0 1096325.0 15171.0
551846.0 1086751.0 15102.0
552915.0 1094809.0 15097.0
551865.0 1086439.0 15200.0
553022.0 1094855.0 15135.0
553059.0 1094019.0 15217.0
553333.0 1096325.0 15210.0
553461.0 1097087.0 15222.0
552909.0 1091394.0 15205.0
553311.0 1094097.0 15147.0
553172.0 1090994.0 15182.0
553475.0 1091361.0 15122.0
553992.0 1095372.0 15114.0
554056.0 1096058.0 15042.0
554135.0 1095674.0 15171.0
553732.0 1091442.0 15065.0
551375.0 1085196.0 15093.0
550317.0 1084607.0 15193.0
550138.0 1084584.0 15077.0
550369.0 1085022.0 15092.0
551780.0 1086345.0 15164.0
549978.0 1084760.0 15051.0
551275.0 1086094.0 15183.0
551799.0 1086437.0 15075.0
548919.0 1084240.0 15175.0
547034.0 1082781.0 15084.0
548904.0 1084359.0 15048.0
550874.0 1086338.0 15229.0
550777.0 1086396.0 15174.0
551216.0 1086796.0 15053.0
551708.0 1088154.0 15095.0
546655.0 1084031.0 15106.0
550821.0 1087533.0 15160.0
546727.0 1084314.0 15195.0
552487.0 1089290.0 15079.0
548002.0 1085554.0 15154.0
546732.0 1085294.0 15043.0
553595.0 1091347.0 15065.0
554087.0 1091737.0 15220.0
546401.0 1085479.0 15193.0
550630.0 1089121.0 15167.0
546441.0 1085615.0 15110.0
550566.0 1089210.0 15194.0
551427.0 1089973.0 15231.0
547564.0 1086800.0 15193.0
550698.0 1089420.0 15152.0
550678.0 1089513.0 15166.0
545040.0 1085112.0 15129.0
545550.0 1085547.0 15235.0
544697.0 1085073.0 15136.0
547419.0 1087346.0 15064.0
550255.0 1089830.0 15219.0
548032.0 1088279.0 15222.0
544669.0 1085815.0 15209.0
545180.0 1086230.0 15210.0
551252.0 1091414.0 15052.0
551792.0 1091775.0 15042.0
552817.0 1092732.0 15192.0
544425.0 1085919.0 15151.0
544865.0 1086268.0 15109.0
545302.0 1086650.0 15099.0
551438.0 1091874.0 15142.0
545301.0 1086961.0 15153.0
551262.0 1092077.0 15213.0
551739.0 1092451.0 15185.0
544355.0 1086357.0 15110.0
546348.0 1088032.0 15044.0
548850.0 1090209.0 15114.0
551474.0 1092393.0 15204.0
551941.0 1092818.0 15128.0
553522.0 1094164.0 15090.0
544245.0 1086439.0 15185.0
544672.0 1086818.0 15136.0
548406.0 1089954.0 15081.0
548872.0 1090346.0 15116.0
550316.0 1091560.0 15066.0
550752.0 1091960.0 15198.0
551736.0 1092748.0 15108.0
553118.0 1094018.0 15209.0
544439.0 1086697.0 15166.0
544889.0 1087007.0 15049.0
548924.0 1090478.0 15107.0
550304.0 1091640.0 15111.0
550779.0 1092049.0 15108.0
544214.0 1086547.0 15042.0
544675.0 1087013.0 15116.0
549141.0 1090809.0 15134.0
549633.0 1091289.0 15179.0
550207.0 1091670.0 15112.0
550717.0 1092079.0 15096.0
551754.0 1092941.0 15055.0
553742.0 1094760.0 15208.0
545386.0 1087751.0 15072.0
550046.0 1091640.0 15050.0
550501.0 1092074.0 15118.0
552830.0 1094111.0 15163.0
554254.0 1095353.0 15145.0
549254.0 1091156.0 15061.0
552874.0 1094347.0 15097.0
553314.0 1094788.0 15208.0
549458.0 1091750.0 15177.0
553062.0 1094823.0 15166.0
553550.0 1095278.0 15237.0
554076.0 1095709.0 15171.0
550155.0 1092559.0 15066.0
553470.0 1095424.0 15126.0
553931.0 1095812.0 15120.0
547754.0 1090734.0 15073.0
547503.0 1090698.0 15092.0
550056.0 1092836.0 15054.0
550533.0 1093306.0 15230.0
545523.0 1089166.0 15043.0
549632.0 1092719.0 15211.0
550146.0 1093104.0 15203.0
546555.0 1090476.0 15060.0
547518.0 1091328.0 15208.0
547998.0 1091752.0 15218.0
553087.0 1096029.0 15095.0
547772.0 1091767.0 15117.0
549164.0 1092968.0 15184.0
552930.0 1096204.0 15174.0
547374.0 1091697.0 15092.0
552817.0 1096369.0 15223.0
553731.0 1097140.0 15198.0
552602.0 1096400.0 15190.0
552685.0 1096617.0 15198.0
553633.0 1097448.0 15177.0
552520.0 1096575.0 15119.0
544414.0 1090055.0 15226.0
546450.0 1091704.0 15173.0
553525.0 1097589.0 15103.0
546403.0 1091800.0 15098.0
552368.0 1096814.0 15121.0
552161.0 1096843.0 15104.0
552549.0 1097205.0 15193.0
552384.0 1097257.0 15154.0
552479.0 1097508.0 15196.0
549265.0 1095050.0 15234.0
551128.0 1096558.0 15161.0
549245.0 1095142.0 15176.0
550721.0 1096469.0 15231.0
550141.0 1096490.0 15060.0
544190.0 1092130.0 15113.0
549455.0 1096652.0 15160.0
544268.0 1092842.0 15104.0
549421.0 1096937.0 15071.0
550782.0 1098120.0 15114.0
549529.0 1097243.0 15089.0
548032.0 1096737.0 15107.0
549829.0 1098219.0 15091.0
550244.0 1098625.0 15217.0
550198.0 1098683.0 15214.0
550707.0 1099068.0 15115.0
543531.0 1095101.0 15151.0
543417.0 1095297.0 15075.0
543648.0 1095693.0 15198.0
547679.0 1098940.0 15187.0
546234.0 1097921.0 15103.0
547572.0 1099020.0 15168.0
548038.0 1099372.0 15085.0
547302.0 1099006.0 15202.0
547800.0 1099393.0 15176.0
546100.0 1098215.0 15165.0
547003.0 1099010.0 15231.0
547069.0 1099261.0 15168.0
546878.0 1099367.0 15146.0
554423.0 1096926.0 15108.0
554364.0 1094906.0 15231.0
553585.0 1097379.0 15088.0
553932.0 1095572.0 15064.0
554051.0 1095113.0 15134.0
554143.0 1094671.0 15219.0
553362.0 1097303.0 15223.0
553500.0 1096357.0 15102.0
553684.0 1095434.0 15102.0
553822.0 1094984.0 15230.0
553910.0 1094551.0 15232.0
554032.0 1093636.0 15093.0
552941.0 1097727.0 15214.0
553087.0 1096920.0 15180.0
553231.0 1096043.0 15127.0
553296.0 1095611.0 15049.0
553639.0 1093951.0 15113.0
552672.0 1097447.0 15216.0
552896.0 1096100.0 15105.0
553214.0 1094707.0 15202.0
553632.0 1092507.0 15216.0
552359.0 1097467.0 15138.0
552414.0 1097029.0 15138.0
552541.0 1096571.0 15204.0
553059.0 1093829.0 15230.0
553494.0 1091479.0 15127.0
552125.0 1096888.0 15039.0
552743.0 1093902.0 15225.0
553272.0 1091350.0 15182.0
552299.0 1092316.0 15047.0
552042.0 1092900.0 15223.0
552062.0 1092495.0 15136.0
552132.0 1092039.0 15108.0
550774.0 1097940.0 15047.0
550858.0 1097469.0 15151.0
551804.0 1092895.0 15158.0
550400.0 1098799.0 15095.0
551710.0 1091992.0 15047.0
550496.0 1097251.0 15150.0
551232.0 1091886.0 15174.0
552230.0 1086863.0 15133.0
551080.0 1091013.0 15228.0
551949.0 1086757.0 15162.0
549640.0 1097080.0 15233.0
550558.0 1092017.0 15122.0
550793.0 1091141.0 15230.0
551623.0 1086614.0 15095.0
549638.0 1094992.0 15079.0
550112.0 1092663.0 15049.0
550268.0 1092203.0 15235.0
550309.0 1091754.0 15053.0
550733.0 1089896.0 15219.0
550867.0 1089005.0 15140.0
551102.0 1087656.0 15093.0
551556.0 1085382.0 15038.0
548669.0 1098897.0 15145.0
549439.0 1094963.0 15142.0
549859.0 1092442.0 15100.0
550402.0 1089892.0 15190.0
551051.0 1086497.0 15080.0
551111.0 1086105.0 15059.0
549675.0 1092094.0 15187.0
549729.0 1091632.0 15056.0
549858.0 1091224.0 15211.0
550137.0 1089869.0 15224.0
550779.0 1086752.0 15236.0
550944.0 1085859.0 15151.0
551016.0 1085431.0 15227.0
548122.0 1099091.0 15147.0
549264.0 1093027.0 15219.0
549465.0 1092096.0 15228.0
549513.0 1091635.0 15169.0
549756.0 1090265.0 15116.0
549894.0 1089820.0 15195.0
550803.0 1085294.0 15225.0
550851.0 1084806.0 15071.0
547916.0 1099075.0 15171.0
549340.0 1091237.0 15075.0
550652.0 1084897.0 15182.0
550719.0 1084449.0 15186.0
547975.0 1097293.0 15098.0
548125.0 1096860.0 15154.0
549184.0 1091307.0 15234.0
547363.0 1099463.0 15166.0
548986.0 1090992.0 15161.0
549045.0 1090544.0 15146.0
548776.0 1090587.0 15094.0
546992.0 1099281.0 15165.0
547011.0 1098872.0 15166.0
