586084.0 1119945.0 8859.0
585733.0 1119715.0 8952.0
585541.0 1119631.0 8955.0
585709.0 1119870.0 8989.0
583149.0 1117651.0 8895.0
584671.0 1119224.0 8865.0
581467.0 1116983.0 8990.0
584115.0 1119670.0 8944.0
583790.0 1119876.0 8861.0
583147.0 1120107.0 8864.0
581834.0 1119212.0 9026.0
582862.0 1121530.0 8983.0
581487.0 1120284.0 8994.0
581298.0 1120232.0 8918.0
582867.0 1121793.0 8919.0
581247.0 1120374.0 8893.0
582809.0 1121889.0 8848.0
587368.0 1118638.0 8897.0
587130.0 1118806.0 9014.0
587247.0 1118435.0 9011.0
586586.0 1119985.0 8865.0
587072.0 1118451.0 9027.0
586411.0 1119957.0 8936.0
586478.0 1119541.0 8852.0
586631.0 1119152.0 8967.0
586220.0 1119558.0 8897.0
585883.0 1119789.0 8927.0
585582.0 1119533.0 8935.0
585482.0 1118525.0 8907.0
584968.0 1119412.0 8949.0
584171.0 1117462.0 8862.0
582792.0 1121902.0 8991.0
583167.0 1120304.0 8907.0
583274.0 1119913.0 8964.0
583192.0 1117484.0 8876.0
582957.0 1117507.0 9033.0
583042.0 1117106.0 8998.0
582140.0 1117452.0 9013.0
580978.0 1120537.0 8890.0
582084.0 1116337.0 8966.0
580769.0 1120398.0 8939.0
581881.0 1116224.0 9019.0
582873.0 1122030.0 8954.0
580914.0 1121040.0 8846.0
583605.0 1121648.0 9004.0
581099.0 1120725.0 8995.0
583580.0 1121354.0 9023.0
581278.0 1120561.0 8861.0
580842.0 1120114.0 9003.0
584014.0 1119756.0 9004.0
583295.0 1119544.0 8989.0
582096.0 1119149.0 8906.0
585580.0 1120115.0 8844.0
586720.0 1120254.0 8888.0
586372.0 1120075.0 9028.0
586014.0 1120028.0 8867.0
585648.0 1119920.0 8896.0
585313.0 1119700.0 8987.0
582822.0 1118904.0 8984.0
586408.0 1119874.0 8899.0
586037.0 1119772.0 8905.0
583064.0 1118690.0 8982.0
587222.0 1118964.0 8968.0
587290.0 1118725.0 8933.0
583014.0 1117237.0 9016.0
587243.0 1118551.0 8944.0
582996.0 1116925.0 8929.0
581821.0 1116462.0 9006.0
582195.0 1116421.0 8921.0
581845.0 1116317.0 8872.0
582069.0 1116172.0 8842.0
580854.0 1120816.0 8829.0
583026.0 1118563.0 8718.0
583694.0 1117574.0 8741.0
583757.0 1117326.0 8711.0
584983.0 1118763.0 8668.0
585296.0 1118633.0 8808.0
587002.0 1120029.0 8777.0
587094.0 1119871.0 8705.0
585175.0 1118564.0 8715.0
586750.0 1120198.0 8807.0
584058.0 1117618.0 8807.0
583906.0 1117596.0 8824.0
585022.0 1118678.0 8675.0
583648.0 1118092.0 8707.0
583038.0 1118525.0 8780.0
583588.0 1119114.0 8775.0
583910.0 1119810.0 8781.0
581150.0 1120461.0 8704.0
580965.0 1120468.0 8758.0
580708.0 1120376.0 8701.0
580835.0 1120766.0 8741.0
580533.0 1120960.0 8663.0
580283.0 1120907.0 8643.0
586961.0 1119819.0 8671.0
586734.0 1120052.0 8815.0
586224.0 1120368.0 8754.0
586079.0 1119979.0 8835.0
585037.0 1118619.0 8692.0
584540.0 1119422.0 8682.0
583908.0 1119490.0 8671.0
583573.0 1119627.0 8651.0
583839.0 1117463.0 8783.0
583283.0 1118325.0 8809.0
583487.0 1117472.0 8741.0
581343.0 1120221.0 8820.0
581452.0 1119849.0 8700.0
581597.0 1119474.0 8737.0
580748.0 1120941.0 8650.0
580429.0 1121271.0 8673.0
580265.0 1121081.0 8699.0
580928.0 1120595.0 8677.0
581178.0 1120428.0 8657.0
581499.0 1119942.0 8646.0
583264.0 1120207.0 8813.0
586270.0 1120456.0 8727.0
584137.0 1119631.0 8797.0
583425.0 1119481.0 8759.0
584156.0 1119521.0 8673.0
586766.0 1120020.0 8827.0
586797.0 1119768.0 8703.0
585414.0 1118453.0 8786.0
583202.0 1117691.0 8809.0
583679.0 1117572.0 8692.0
584005.0 1117457.0 8753.0
583649.0 1117428.0 8681.0
583667.0 1117273.0 8700.0
580097.0 1120879.0 8456.0
580786.0 1120719.0 8581.0
581496.0 1119864.0 8547.0
581630.0 1119501.0 8510.0
583372.0 1119262.0 8462.0
584367.0 1119960.0 8538.0
584647.0 1119935.0 8584.0
584610.0 1118523.0 8498.0
584660.0 1117590.0 8541.0
584547.0 1118226.0 8569.0
584019.0 1117857.0 8561.0
584557.0 1118400.0 8454.0
586192.0 1120120.0 8544.0
584771.0 1120137.0 8486.0
581484.0 1119510.0 8549.0
580626.0 1120731.0 8532.0
580314.0 1121095.0 8599.0
580195.0 1121266.0 8544.0
584686.0 1119797.0 8519.0
584643.0 1119006.0 8576.0
584582.0 1117462.0 8472.0
583295.0 1120477.0 8450.0
583435.0 1120038.0 8616.0
583977.0 1117845.0 8542.0
583346.0 1117878.0 8636.0
581158.0 1120606.0 8531.0
580532.0 1120836.0 8600.0
580253.0 1120624.0 8463.0
580219.0 1121196.0 8613.0
580497.0 1120986.0 8625.0
580116.0 1120884.0 8523.0
580688.0 1120776.0 8608.0
580331.0 1120684.0 8490.0
581395.0 1120290.0 8460.0
581784.0 1119777.0 8599.0
583517.0 1120119.0 8479.0
581731.0 1119496.0 8473.0
584374.0 1117535.0 8521.0
581414.0 1120808.0 8336.0
581485.0 1120020.0 8342.0
581606.0 1120508.0 8288.0
583882.0 1118232.0 8372.0
584641.0 1120340.0 8309.0
584491.0 1118621.0 8298.0
584360.0 1118530.0 8303.0
583535.0 1118075.0 8314.0
584814.0 1120361.0 8392.0
584626.0 1120317.0 8337.0
584583.0 1120454.0 8324.0
584328.0 1120985.0 8242.0
582888.0 1120204.0 8391.0
581975.0 1119911.0 8299.0
581495.0 1119608.0 8364.0
581576.0 1119888.0 8368.0
582653.0 1120906.0 8372.0
581529.0 1119875.0 8375.0
581540.0 1120498.0 8300.0
584787.0 1120201.0 8255.0
584608.0 1118575.0 8359.0
583414.0 1120697.0 8257.0
583556.0 1120266.0 8391.0
583651.0 1119839.0 8325.0
583539.0 1119162.0 8393.0
581341.0 1120682.0 8323.0
581488.0 1120296.0 8285.0
580471.0 1120497.0 8399.0
581442.0 1120595.0 8294.0
581475.0 1119776.0 8344.0
585327.0 1119416.0 8267.0
584254.0 1118167.0 8395.0
584377.0 1117979.0 8395.0
584328.0 1117743.0 8436.0
584701.0 1117535.0 8421.0
581234.0 1119700.0 8063.0
581443.0 1120849.0 8093.0
581846.0 1120132.0 8120.0
581980.0 1119527.0 8223.0
583520.0 1120519.0 8087.0
584066.0 1121368.0 8143.0
583583.0 1118214.0 8115.0
584359.0 1121153.0 8117.0
584571.0 1119079.0 8197.0
583402.0 1120494.0 8201.0
583974.0 1121005.0 8119.0
583451.0 1120642.0 8141.0
583996.0 1121137.0 8165.0
581906.0 1119291.0 8192.0
582674.0 1120648.0 8112.0
582613.0 1120753.0 8047.0
581432.0 1120779.0 8152.0
584939.0 1120653.0 8042.0
584549.0 1121002.0 8076.0
584690.0 1120591.0 8150.0
584430.0 1120109.0 8085.0
583943.0 1120998.0 8086.0
583795.0 1119809.0 8047.0
583410.0 1118221.0 8177.0
582053.0 1120784.0 8038.0
581910.0 1120195.0 8080.0
581646.0 1120523.0 8145.0
582175.0 1120959.0 8093.0
580328.0 1120293.0 8108.0
582015.0 1120653.0 8042.0
581680.0 1120487.0 8165.0
584092.0 1121015.0 8113.0
581845.0 1120290.0 8102.0
584633.0 1120917.0 8124.0
583461.0 1119385.0 8188.0
584560.0 1118436.0 8236.0
583487.0 1118056.0 8211.0
581347.0 1121087.0 7956.0
581466.0 1119800.0 7959.0
582103.0 1120636.0 7967.0
582339.0 1120585.0 7986.0
582848.0 1120108.0 7942.0
583604.0 1121163.0 7850.0
583684.0 1120537.0 7980.0
583266.0 1117973.0 7838.0
583811.0 1120399.0 7895.0
584065.0 1120249.0 7915.0
584261.0 1121288.0 7983.0
584199.0 1119948.0 7900.0
584534.0 1119228.0 7881.0
583317.0 1118001.0 7925.0
584166.0 1119642.0 7948.0
584517.0 1120166.0 7930.0
585052.0 1120697.0 8011.0
585112.0 1120910.0 7873.0
583833.0 1119828.0 7857.0
584034.0 1120275.0 7920.0
584619.0 1120924.0 7996.0
583879.0 1120390.0 7927.0
583734.0 1120399.0 7953.0
583859.0 1120689.0 7964.0
584472.0 1121288.0 7884.0
583719.0 1120983.0 8003.0
583531.0 1120986.0 7883.0
582075.0 1120296.0 7965.0
582060.0 1120500.0 7971.0
582080.0 1120643.0 7939.0
581281.0 1121059.0 7941.0
584083.0 1121268.0 7841.0
584664.0 1118951.0 7959.0
583998.0 1120630.0 7988.0
583680.0 1120986.0 7923.0
583796.0 1120586.0 7966.0
583894.0 1120156.0 7891.0
583472.0 1121000.0 7900.0
583636.0 1120626.0 8037.0
583223.0 1121064.0 7892.0
583636.0 1118234.0 7931.0
582119.0 1120343.0 7936.0
583677.0 1121063.0 7860.0
582212.0 1120470.0 7906.0
582076.0 1120130.0 7934.0
583856.0 1120463.0 7916.0
581401.0 1119529.0 8019.0
582110.0 1120104.0 7811.0
583217.0 1121272.0 7638.0
583047.0 1118191.0 7700.0
583255.0 1119190.0 7684.0
583116.0 1118140.0 7745.0
583980.0 1121497.0 7676.0
583895.0 1120101.0 7816.0
584504.0 1119150.0 7730.0
582850.0 1117744.0 7732.0
583007.0 1118311.0 7660.0
584046.0 1119575.0 7743.0
584131.0 1119679.0 7659.0
584094.0 1119784.0 7686.0
584098.0 1121481.0 7722.0
582637.0 1120244.0 7754.0
583679.0 1121311.0 7715.0
582215.0 1120011.0 7640.0
583351.0 1121147.0 7771.0
583353.0 1121258.0 7680.0
583201.0 1121191.0 7658.0
584290.0 1121407.0 7689.0
584033.0 1120201.0 7832.0
583906.0 1119730.0 7711.0
582394.0 1120329.0 7795.0
581399.0 1120902.0 7743.0
583375.0 1121300.0 7673.0
584388.0 1121338.0 7740.0
582564.0 1120658.0 7811.0
582426.0 1120322.0 7724.0
582342.0 1120054.0 7641.0
583995.0 1120017.0 7787.0
583317.0 1119215.0 7834.0
582087.0 1120044.0 7453.0
582571.0 1120074.0 7543.0
582568.0 1119028.0 7466.0
583092.0 1121196.0 7580.0
582874.0 1118550.0 7501.0
583424.0 1121495.0 7580.0
583546.0 1121493.0 7573.0
584024.0 1121721.0 7460.0
584121.0 1121581.0 7629.0
584430.0 1119195.0 7449.0
584381.0 1118606.0 7566.0
582608.0 1119443.0 7533.0
582647.0 1119724.0 7566.0
581243.0 1119170.0 7439.0
581776.0 1119616.0 7508.0
583770.0 1121672.0 7462.0
582438.0 1120498.0 7569.0
583229.0 1121432.0 7544.0
583177.0 1121534.0 7444.0
585197.0 1118976.0 7496.0
584878.0 1118849.0 7450.0
583837.0 1121660.0 7496.0
583638.0 1121417.0 7612.0
584028.0 1119791.0 7604.0
583439.0 1121406.0 7603.0
583261.0 1121389.0 7616.0
583027.0 1121464.0 7588.0
583712.0 1118524.0 7450.0
582394.0 1119870.0 7439.0
582078.0 1119831.0 7471.0
583185.0 1121542.0 7494.0
584104.0 1121556.0 7585.0
583730.0 1121447.0 7592.0
582008.0 1119945.0 7551.0
583773.0 1118373.0 7544.0
581956.0 1119774.0 7243.0
582551.0 1120580.0 7390.0
582929.0 1120983.0 7405.0
583786.0 1121755.0 7392.0
584344.0 1118944.0 7378.0
584378.0 1118737.0 7436.0
584514.0 1119194.0 7271.0
581695.0 1119321.0 7273.0
581845.0 1119655.0 7407.0
582730.0 1120608.0 7380.0
582407.0 1120766.0 7284.0
583495.0 1121928.0 7317.0
583042.0 1121618.0 7296.0
582365.0 1121020.0 7252.0
583357.0 1122057.0 7355.0
583461.0 1121793.0 7367.0
583230.0 1121804.0 7301.0
583068.0 1120621.0 7240.0
583453.0 1122150.0 7429.0
582707.0 1121938.0 7299.0
583022.0 1121843.0 7238.0
583889.0 1121834.0 7406.0
582677.0 1119989.0 7275.0
582326.0 1119801.0 7388.0
582475.0 1119665.0 7409.0
581444.0 1119304.0 7401.0
583856.0 1117844.0 7393.0
581909.0 1119897.0 7104.0
582558.0 1121011.0 7190.0
582872.0 1121697.0 7106.0
587786.0 1119076.0 7052.0
588344.0 1119511.0 7153.0
588351.0 1119242.0 7090.0
587699.0 1121049.0 7053.0
582894.0 1120110.0 7080.0
581913.0 1119840.0 7196.0
582722.0 1120954.0 7127.0
582106.0 1120519.0 7066.0
582568.0 1121081.0 7203.0
582818.0 1121647.0 7098.0
587290.0 1118792.0 7182.0
583002.0 1121801.0 7233.0
582738.0 1121883.0 7207.0
583094.0 1120184.0 7047.0
582760.0 1120722.0 7230.0
583373.0 1122022.0 7149.0
581914.0 1119784.0 7038.0
582120.0 1119647.0 7133.0
581781.0 1119519.0 7130.0
582546.0 1119520.0 7182.0
583602.0 1119620.0 7143.0
588190.0 1119935.0 7215.0
584837.0 1118881.0 7100.0
587452.0 1118936.0 7071.0
581763.0 1119775.0 6904.0
582841.0 1121944.0 6997.0
582966.0 1119926.0 6945.0
583071.0 1119980.0 6915.0
583143.0 1120054.0 6983.0
584125.0 1120335.0 6903.0
583914.0 1118733.0 6950.0
587157.0 1121219.0 6850.0
587175.0 1121245.0 6859.0
587342.0 1119039.0 6961.0
588074.0 1119559.0 6937.0
588146.0 1119625.0 7031.0
587926.0 1118971.0 6969.0
588557.0 1119596.0 6974.0
588069.0 1119263.0 6975.0
587556.0 1118943.0 6959.0
588073.0 1119467.0 6958.0
587863.0 1119384.0 6865.0
587457.0 1119114.0 6875.0
588002.0 1119695.0 6905.0
583712.0 1115858.0 6885.0
583557.0 1115921.0 6867.0
587610.0 1121044.0 6911.0
585216.0 1118762.0 6939.0
586972.0 1120928.0 6863.0
586832.0 1121374.0 6843.0
584758.0 1119380.0 6917.0
584155.0 1120126.0 6916.0
581775.0 1119705.0 6927.0
581817.0 1119893.0 6968.0
582857.0 1121859.0 7036.0
588199.0 1119856.0 6963.0
587436.0 1121142.0 6852.0
587950.0 1119464.0 6926.0
588071.0 1119038.0 6983.0
587725.0 1119062.0 6994.0
586875.0 1121045.0 6905.0
586453.0 1121261.0 6862.0
585632.0 1118921.0 6976.0
584128.0 1119615.0 6894.0
582845.0 1119901.0 6945.0
587117.0 1121675.0 6902.0
586405.0 1121407.0 6983.0
586787.0 1121332.0 6876.0
586426.0 1121218.0 6849.0
582840.0 1119895.0 6957.0
587500.0 1121347.0 6847.0
587179.0 1121208.0 6880.0
586836.0 1121092.0 6879.0
588132.0 1119789.0 6888.0
585248.0 1118794.0 6901.0
588060.0 1119564.0 6875.0
587707.0 1119462.0 6838.0
587920.0 1119380.0 6878.0
588134.0 1119269.0 6866.0
587796.0 1119081.0 6980.0
588242.0 1119048.0 6849.0
581466.0 1119737.0 6646.0
581586.0 1119896.0 6774.0
581669.0 1119557.0 6729.0
582004.0 1119205.0 6679.0
582064.0 1118156.0 6674.0
582679.0 1121815.0 6810.0
582158.0 1118035.0 6681.0
583482.0 1116051.0 6702.0
583548.0 1116036.0 6832.0
586649.0 1121240.0 6768.0
586958.0 1120694.0 6685.0
587298.0 1119017.0 6691.0
587524.0 1120083.0 6717.0
587726.0 1121166.0 6717.0
587989.0 1119913.0 6705.0
588754.0 1119921.0 6785.0
588371.0 1118319.0 6646.0
588259.0 1118783.0 6760.0
587928.0 1118583.0 6651.0
588655.0 1119820.0 6829.0
588659.0 1119985.0 6740.0
588543.0 1120025.0 6709.0
587588.0 1119381.0 6755.0
588129.0 1119944.0 6746.0
587809.0 1119817.0 6761.0
583470.0 1115866.0 6695.0
583437.0 1115964.0 6696.0
585588.0 1118487.0 6671.0
587083.0 1120353.0 6666.0
586903.0 1120427.0 6713.0
586660.0 1120820.0 6679.0
587238.0 1121424.0 6797.0
583811.0 1118723.0 6826.0
584416.0 1119331.0 6740.0
583801.0 1118739.0 6819.0
584341.0 1119287.0 6813.0
583794.0 1118782.0 6744.0
584332.0 1119307.0 6757.0
581918.0 1119040.0 6700.0
581650.0 1119946.0 6752.0
583019.0 1122188.0 6694.0
588457.0 1119727.0 6726.0
588214.0 1119443.0 6805.0
588330.0 1119066.0 6815.0
587342.0 1121510.0 6802.0
587809.0 1119852.0 6835.0
588109.0 1118636.0 6761.0
587016.0 1121411.0 6821.0
587121.0 1121013.0 6781.0
587520.0 1119444.0 6791.0
587320.0 1119327.0 6822.0
586536.0 1120868.0 6699.0
586179.0 1121154.0 6729.0
585666.0 1118475.0 6664.0
584294.0 1120055.0 6811.0
583971.0 1119952.0 6714.0
583106.0 1122202.0 6722.0
582844.0 1115617.0 6650.0
581449.0 1118024.0 6695.0
581471.0 1119764.0 6726.0
587482.0 1121607.0 6790.0
587150.0 1121485.0 6777.0
583247.0 1119871.0 6735.0
582893.0 1119773.0 6705.0
587579.0 1121135.0 6721.0
587253.0 1121002.0 6706.0
586900.0 1120867.0 6810.0
587771.0 1119711.0 6813.0
587454.0 1119535.0 6830.0
584939.0 1118792.0 6766.0
587330.0 1119397.0 6694.0
588241.0 1119608.0 6651.0
587480.0 1119293.0 6717.0
587189.0 1119192.0 6735.0
587372.0 1119090.0 6670.0
588083.0 1118699.0 6715.0
580774.0 1119967.0 6467.0
581269.0 1119382.0 6526.0
582620.0 1119387.0 6502.0
583407.0 1119072.0 6622.0
583612.0 1119162.0 6483.0
584109.0 1120375.0 6439.0
584201.0 1120405.0 6450.0
584286.0 1119199.0 6605.0
585745.0 1117848.0 6446.0
586343.0 1120447.0 6444.0
586723.0 1120289.0 6550.0
587015.0 1120474.0 6617.0
587047.0 1120124.0 6543.0
587059.0 1119887.0 6464.0
587074.0 1119318.0 6459.0
587337.0 1120387.0 6454.0
587584.0 1120896.0 6502.0
587766.0 1120304.0 6568.0
587629.0 1118536.0 6445.0
587742.0 1118476.0 6470.0
587948.0 1118398.0 6535.0
588008.0 1118264.0 6485.0
588264.0 1118349.0 6582.0
588170.0 1118213.0 6473.0
587988.0 1118205.0 6636.0
588285.0 1118524.0 6558.0
587645.0 1118528.0 6461.0
587353.0 1118693.0 6573.0
587792.0 1120467.0 6526.0
583496.0 1116127.0 6587.0
587750.0 1120490.0 6487.0
586992.0 1119790.0 6476.0
583473.0 1116180.0 6456.0
587229.0 1120169.0 6593.0
587788.0 1120714.0 6444.0
586854.0 1119817.0 6463.0
587318.0 1120403.0 6603.0
587535.0 1120901.0 6520.0
586549.0 1120252.0 6501.0
585825.0 1120434.0 6584.0
586344.0 1120952.0 6484.0
586303.0 1121094.0 6495.0
583888.0 1118796.0 6462.0
583889.0 1118919.0 6520.0
582034.0 1118032.0 6636.0
584238.0 1120321.0 6479.0
582947.0 1119428.0 6495.0
582523.0 1119402.0 6493.0
582387.0 1120275.0 6623.0
581204.0 1119758.0 6571.0
587749.0 1120631.0 6438.0
587572.0 1120227.0 6506.0
588137.0 1118169.0 6483.0
588251.0 1117740.0 6441.0
586867.0 1120568.0 6583.0
586947.0 1120155.0 6486.0
586536.0 1120392.0 6474.0
586650.0 1119976.0 6445.0
586212.0 1120752.0 6565.0
586240.0 1120331.0 6441.0
586040.0 1120451.0 6574.0
585493.0 1120145.0 6536.0
585832.0 1118527.0 6459.0
584648.0 1119692.0 6489.0
584364.0 1119602.0 6632.0
584122.0 1119213.0 6604.0
583044.0 1119726.0 6551.0
583025.0 1116040.0 6527.0
583143.0 1115687.0 6628.0
581640.0 1117859.0 6449.0
581045.0 1119721.0 6630.0
580812.0 1119929.0 6496.0
581127.0 1119703.0 6594.0
586002.0 1121182.0 6563.0
581381.0 1119552.0 6621.0
586441.0 1120827.0 6441.0
585805.0 1120521.0 6630.0
582387.0 1119397.0 6603.0
582003.0 1119247.0 6585.0
587272.0 1120731.0 6547.0
586907.0 1120589.0 6588.0
586508.0 1120515.0 6440.0
585836.0 1120220.0 6453.0
581894.0 1118893.0 6515.0
587247.0 1120367.0 6448.0
586909.0 1120224.0 6529.0
586543.0 1120135.0 6438.0
587688.0 1120158.0 6482.0
585342.0 1118607.0 6627.0
585584.0 1118505.0 6553.0
581484.0 1116419.0 6281.0
581931.0 1118731.0 6331.0
581906.0 1117960.0 6267.0
582411.0 1119012.0 6436.0
583940.0 1120115.0 6421.0
584086.0 1120452.0 6368.0
584041.0 1119415.0 6420.0
583711.0 1114833.0 6300.0
585442.0 1118086.0 6368.0
585895.0 1120184.0 6328.0
585964.0 1120112.0 6405.0
586016.0 1120113.0 6406.0
586274.0 1120774.0 6397.0
587293.0 1120486.0 6391.0
588613.0 1117891.0 6291.0
588434.0 1118100.0 6382.0
583743.0 1114917.0 6341.0
586141.0 1117581.0 6257.0
586657.0 1118155.0 6340.0
587176.0 1118701.0 6310.0
583608.0 1115184.0 6359.0
587102.0 1119127.0 6389.0
583369.0 1115942.0 6269.0
586761.0 1119584.0 6397.0
586571.0 1119610.0 6338.0
586434.0 1119719.0 6356.0
586102.0 1120101.0 6424.0
585874.0 1120138.0 6341.0
586392.0 1120714.0 6420.0
584903.0 1119769.0 6411.0
586029.0 1120810.0 6291.0
584985.0 1119940.0 6276.0
585538.0 1120503.0 6252.0
586061.0 1121038.0 6342.0
581083.0 1116734.0 6276.0
580779.0 1116844.0 6308.0
580461.0 1116666.0 6240.0
583942.0 1120178.0 6269.0
582329.0 1118873.0 6422.0
587622.0 1121018.0 6243.0
588246.0 1118584.0 6267.0
588518.0 1117774.0 6429.0
587421.0 1120610.0 6341.0
587184.0 1118896.0 6294.0
587386.0 1118529.0 6370.0
586728.0 1119522.0 6351.0
586413.0 1119552.0 6326.0
586082.0 1120008.0 6432.0
585568.0 1120674.0 6257.0
585767.0 1120256.0 6421.0
585532.0 1120531.0 6374.0
585282.0 1120588.0 6246.0
586018.0 1117663.0 6301.0
585806.0 1117635.0 6393.0
584852.0 1119942.0 6280.0
585415.0 1117952.0 6364.0
584349.0 1120482.0 6247.0
584717.0 1119250.0 6411.0
584076.0 1120427.0 6408.0
585916.0 1113288.0 6386.0
585673.0 1112951.0 6323.0
585755.0 1112570.0 6268.0
583206.0 1119642.0 6313.0
580548.0 1117215.0 6363.0
580348.0 1116851.0 6295.0
586047.0 1120983.0 6418.0
581740.0 1119462.0 6435.0
586091.0 1120739.0 6375.0
585359.0 1120530.0 6251.0
582760.0 1119558.0 6379.0
587934.0 1121052.0 6288.0
586153.0 1120419.0 6392.0
585496.0 1120162.0 6396.0
587576.0 1120508.0 6362.0
586905.0 1119895.0 6375.0
586559.0 1119774.0 6373.0
585095.0 1119230.0 6402.0
584401.0 1119028.0 6335.0
581768.0 1118143.0 6320.0
581428.0 1118017.0 6303.0
586632.0 1119515.0 6321.0
586269.0 1119395.0 6387.0
586076.0 1118510.0 6339.0
585315.0 1118329.0 6261.0
587647.0 1118653.0 6431.0
587298.0 1118614.0 6262.0
585477.0 1117946.0 6376.0
588243.0 1118065.0 6427.0
588323.0 1117806.0 6353.0
585814.0 1113000.0 6242.0
581068.0 1116836.0 6206.0
581434.0 1117582.0 6071.0
581636.0 1118334.0 6209.0
581715.0 1117744.0 6106.0
581789.0 1117567.0 6105.0
583558.0 1119916.0 6120.0
583225.0 1115966.0 6039.0
583464.0 1116294.0 6130.0
583372.0 1115358.0 6144.0
583581.0 1114906.0 6119.0
584499.0 1117526.0 6073.0
584652.0 1118068.0 6211.0
584634.0 1117320.0 6041.0
584907.0 1118561.0 6078.0
584928.0 1118468.0 6098.0
584953.0 1117232.0 6114.0
585220.0 1118483.0 6189.0
585988.0 1121006.0 6213.0
586878.0 1119059.0 6107.0
586939.0 1119025.0 6145.0
586998.0 1119077.0 6211.0
587643.0 1121450.0 6188.0
585835.0 1112508.0 6068.0
587834.0 1121334.0 6216.0
586928.0 1112500.0 6108.0
586828.0 1113288.0 6117.0
588236.0 1114783.0 6067.0
586724.0 1113414.0 6104.0
585884.0 1112567.0 6130.0
586163.0 1112873.0 6072.0
586753.0 1113485.0 6056.0
585854.0 1112599.0 6066.0
585756.0 1112647.0 6079.0
585744.0 1112901.0 6132.0
583409.0 1115182.0 6227.0
586660.0 1118499.0 6094.0
586892.0 1118995.0 6115.0
585160.0 1117416.0 6052.0
586797.0 1119155.0 6067.0
586776.0 1119221.0 6045.0
583303.0 1115944.0 6213.0
584852.0 1117567.0 6161.0
586454.0 1119156.0 6038.0
584798.0 1117697.0 6183.0
586019.0 1118892.0 6043.0
587677.0 1121280.0 6223.0
585556.0 1119434.0 6220.0
584288.0 1118408.0 6182.0
585544.0 1120203.0 6213.0
585975.0 1120761.0 6162.0
580951.0 1116318.0 6230.0
580626.0 1116403.0 6136.0
581074.0 1116877.0 6202.0
580791.0 1116729.0 6216.0
584884.0 1120818.0 6163.0
581351.0 1117290.0 6046.0
581827.0 1117878.0 6235.0
582373.0 1118362.0 6083.0
580964.0 1117097.0 6130.0
581475.0 1117572.0 6089.0
581908.0 1118089.0 6189.0
581835.0 1118174.0 6141.0
584173.0 1120533.0 6210.0
580833.0 1117376.0 6119.0
581855.0 1118436.0 6199.0
584061.0 1120461.0 6042.0
581528.0 1118349.0 6206.0
580958.0 1118513.0 6192.0
580988.0 1118744.0 6208.0
580903.0 1118818.0 6220.0
580649.0 1118806.0 6094.0
587813.0 1121237.0 6084.0
588334.0 1118154.0 6170.0
586719.0 1119055.0 6041.0
586405.0 1119102.0 6039.0
586170.0 1119178.0 6092.0
586262.0 1118768.0 6056.0
586433.0 1118361.0 6229.0
585995.0 1118968.0 6040.0
585536.0 1119275.0 6166.0
585196.0 1118353.0 6201.0
583845.0 1120814.0 6048.0
585968.0 1112882.0 6157.0
586051.0 1112467.0 6132.0
583317.0 1119532.0 6099.0
583781.0 1115127.0 6097.0
582220.0 1118506.0 6056.0
582703.0 1116819.0 6197.0
583382.0 1114351.0 6144.0
581917.0 1118499.0 6141.0
581640.0 1118469.0 6185.0
581040.0 1118777.0 6174.0
581143.0 1118355.0 6177.0
581330.0 1117526.0 6067.0
580968.0 1117984.0 6172.0
581101.0 1117179.0 6055.0
581224.0 1116792.0 6095.0
580611.0 1117771.0 6091.0
580764.0 1117360.0 6171.0
580841.0 1116929.0 6092.0
580964.0 1116541.0 6141.0
585311.0 1120869.0 6117.0
580614.0 1119252.0 6038.0
580816.0 1118997.0 6141.0
587639.0 1120978.0 6211.0
581112.0 1118730.0 6194.0
581564.0 1118474.0 6191.0
581205.0 1118394.0 6176.0
580847.0 1118273.0 6138.0
582141.0 1118360.0 6064.0
581008.0 1117953.0 6121.0
580669.0 1117756.0 6196.0
585524.0 1119228.0 6092.0
581619.0 1117842.0 6184.0
581252.0 1117725.0 6140.0
580524.0 1117424.0 6220.0
586170.0 1119226.0 6114.0
585810.0 1119124.0 6058.0
581582.0 1117652.0 6067.0
581205.0 1117521.0 6081.0
580851.0 1117378.0 6142.0
586685.0 1119247.0 6110.0
581092.0 1117340.0 6070.0
580713.0 1117161.0 6209.0
586964.0 1119125.0 6192.0
585898.0 1118805.0 6096.0
585159.0 1118536.0 6097.0
584453.0 1118293.0 6102.0
580838.0 1117048.0 6089.0
580458.0 1116904.0 6083.0
587109.0 1118917.0 6218.0
584930.0 1118281.0 6084.0
584628.0 1118088.0 6128.0
581064.0 1116863.0 6134.0
580396.0 1116615.0 6199.0
584691.0 1117767.0 6143.0
581319.0 1116639.0 6109.0
580959.0 1116504.0 6086.0
584705.0 1117413.0 6059.0
588597.0 1117896.0 6162.0
583745.0 1115251.0 6116.0
586137.0 1113166.0 6065.0
586013.0 1112726.0 6106.0
580547.0 1119031.0 6008.0
582334.0 1119834.0 5869.0
582587.0 1119304.0 5983.0
582660.0 1118130.0 5849.0
582920.0 1118719.0 5906.0
583140.0 1118842.0 5857.0
583156.0 1116544.0 5925.0
583275.0 1116547.0 5891.0
583206.0 1115494.0 5925.0
583477.0 1116737.0 5950.0
583511.0 1116504.0 5933.0
584100.0 1117034.0 5983.0
585006.0 1121112.0 5860.0
584636.0 1118567.0 5914.0
585138.0 1121021.0 5971.0
584547.0 1116964.0 5858.0
584682.0 1117070.0 5962.0
584767.0 1116984.0 5962.0
585268.0 1119083.0 5911.0
585805.0 1119113.0 5982.0
586225.0 1119106.0 6000.0
586670.0 1119157.0 6030.0
585858.0 1112663.0 5925.0
586176.0 1112317.0 5951.0
586429.0 1112747.0 5931.0
586539.0 1112745.0 5913.0
586733.0 1112441.0 5984.0
589026.0 1114234.0 5891.0
589184.0 1113815.0 5850.0
589293.0 1113903.0 5907.0
589132.0 1114423.0 5989.0
586563.0 1112268.0 5940.0
586314.0 1112319.0 5970.0
586888.0 1112926.0 5846.0
586508.0 1112652.0 5929.0
586243.0 1112505.0 5972.0
586410.0 1112864.0 5937.0
588186.0 1114836.0 6014.0
586233.0 1112781.0 5982.0
586620.0 1113251.0 5908.0
587799.0 1117793.0 5973.0
587610.0 1117922.0 5849.0
583554.0 1114740.0 6029.0
584088.0 1115278.0 5956.0
584887.0 1116763.0 5847.0
586427.0 1118392.0 5915.0
584810.0 1116933.0 5935.0
584691.0 1116830.0 5864.0
586310.0 1118551.0 5883.0
583157.0 1115369.0 5858.0
584687.0 1117064.0 5983.0
586320.0 1118655.0 5897.0
584671.0 1117085.0 5973.0
586495.0 1119035.0 6013.0
583098.0 1115489.0 5877.0
584155.0 1116601.0 5866.0
584680.0 1117162.0 6001.0
586338.0 1118859.0 5912.0
583881.0 1116387.0 5840.0
584410.0 1116907.0 5864.0
583717.0 1116396.0 5904.0
584273.0 1117034.0 5970.0
583328.0 1116348.0 5992.0
583848.0 1116889.0 6018.0
584404.0 1117432.0 5985.0
585994.0 1119059.0 5999.0
583611.0 1116873.0 5886.0
585656.0 1119063.0 6009.0
587422.0 1121277.0 5969.0
584916.0 1118886.0 5852.0
586404.0 1120961.0 5937.0
585521.0 1120194.0 6019.0
583334.0 1118574.0 5868.0
581633.0 1117384.0 6037.0
582671.0 1118396.0 5939.0
585229.0 1120960.0 6030.0
581435.0 1117253.0 6018.0
582627.0 1118424.0 5951.0
582966.0 1118846.0 5929.0
585073.0 1120993.0 5932.0
582525.0 1118520.0 6000.0
585082.0 1121108.0 5901.0
584223.0 1120750.0 5845.0
580549.0 1117932.0 5854.0
580591.0 1118186.0 5925.0
587697.0 1121601.0 5923.0
588598.0 1118104.0 5880.0
588928.0 1114286.0 5946.0
586498.0 1118712.0 5961.0
586630.0 1118351.0 5924.0
585406.0 1120085.0 5877.0
585793.0 1118944.0 6020.0
585035.0 1120971.0 5966.0
585584.0 1118878.0 6013.0
584760.0 1120970.0 5969.0
585285.0 1118864.0 5926.0
586772.0 1113353.0 6031.0
585103.0 1118691.0 6015.0
586484.0 1113216.0 5895.0
586708.0 1112465.0 5982.0
586238.0 1113051.0 6034.0
586322.0 1112627.0 5939.0
584761.0 1117029.0 5879.0
584308.0 1117566.0 5914.0
584587.0 1116440.0 5945.0
584085.0 1117110.0 5852.0
584251.0 1116734.0 5978.0
583929.0 1117006.0 5850.0
584062.0 1116609.0 5903.0
584165.0 1115279.0 5890.0
583543.0 1116678.0 5838.0
583676.0 1116257.0 5885.0
582789.0 1118504.0 5853.0
583265.0 1116819.0 5967.0
583497.0 1115967.0 6018.0
582522.0 1118435.0 5920.0
583272.0 1115683.0 6024.0
583297.0 1115249.0 5839.0
583499.0 1114873.0 5945.0
582891.0 1115558.0 5859.0
581982.0 1118068.0 6026.0
581766.0 1117688.0 6001.0
581584.0 1117377.0 5932.0
580576.0 1119193.0 6021.0
580492.0 1118165.0 5924.0
580496.0 1116727.0 5849.0
580698.0 1116368.0 6010.0
584874.0 1121035.0 5900.0
587868.0 1121501.0 5950.0
580467.0 1118940.0 5912.0
582188.0 1119207.0 5933.0
581847.0 1119041.0 6022.0
582828.0 1118679.0 5851.0
582481.0 1118512.0 5968.0
585175.0 1119122.0 5991.0
581964.0 1118017.0 6036.0
585460.0 1119043.0 5969.0
581928.0 1117821.0 5960.0
586320.0 1119135.0 6037.0
585959.0 1119038.0 6037.0
585590.0 1118937.0 5969.0
585181.0 1118885.0 5839.0
584845.0 1118629.0 6006.0
584470.0 1118538.0 5858.0
581844.0 1117656.0 5922.0
581464.0 1117492.0 6022.0
586618.0 1119062.0 6021.0
586259.0 1118953.0 6014.0
584778.0 1118498.0 5970.0
581526.0 1117338.0 5984.0
581185.0 1117222.0 5977.0
580640.0 1116839.0 5854.0
584336.0 1117336.0 5928.0
587811.0 1118044.0 6020.0
584653.0 1117050.0 5892.0
584288.0 1116952.0 5867.0
583965.0 1116800.0 5901.0
583291.0 1116583.0 5941.0
587875.0 1117825.0 5895.0
583780.0 1116424.0 5851.0
583729.0 1115520.0 6031.0
584064.0 1115412.0 5927.0
584216.0 1115183.0 5891.0
583623.0 1114734.0 5861.0
586775.0 1113383.0 5996.0
586331.0 1112873.0 5979.0
586353.0 1112538.0 5861.0
580335.0 1117798.0 5715.0
580454.0 1118068.0 5776.0
582773.0 1116812.0 5644.0
583217.0 1118712.0 5804.0
583392.0 1118669.0 5751.0
582848.0 1115332.0 5711.0
583486.0 1118422.0 5724.0
582952.0 1115335.0 5749.0
583047.0 1115254.0 5770.0
583496.0 1117012.0 5823.0
583297.0 1115109.0 5645.0
584167.0 1119061.0 5670.0
583351.0 1115157.0 5722.0
583817.0 1117316.0 5758.0
584045.0 1117828.0 5709.0
583457.0 1114629.0 5807.0
584059.0 1117323.0 5790.0
584238.0 1116020.0 5641.0
584391.0 1115897.0 5653.0
585014.0 1119065.0 5819.0
585280.0 1120082.0 5670.0
584638.0 1115879.0 5646.0
585514.0 1120179.0 5830.0
587828.0 1121815.0 5686.0
585695.0 1112475.0 5793.0
586038.0 1113550.0 5655.0
586252.0 1113229.0 5786.0
586392.0 1113311.0 5779.0
586807.0 1112815.0 5726.0
586804.0 1112533.0 5735.0
586956.0 1112663.0 5806.0
589089.0 1113919.0 5795.0
589165.0 1113685.0 5701.0
588974.0 1113840.0 5714.0
587072.0 1112625.0 5764.0
587088.0 1112869.0 5812.0
587719.0 1113448.0 5738.0
587682.0 1113509.0 5681.0
586517.0 1113138.0 5811.0
586500.0 1113289.0 5789.0
586431.0 1113423.0 5705.0
586400.0 1113612.0 5671.0
588498.0 1118386.0 5669.0
587642.0 1117775.0 5705.0
584528.0 1116202.0 5833.0
583341.0 1115018.0 5647.0
584399.0 1116188.0 5722.0
584287.0 1116237.0 5733.0
584212.0 1116474.0 5818.0
582965.0 1115180.0 5681.0
584133.0 1116399.0 5799.0
582885.0 1115278.0 5705.0
582601.0 1115161.0 5651.0
582860.0 1115684.0 5668.0
583266.0 1116857.0 5826.0
583869.0 1117434.0 5734.0
583884.0 1117726.0 5669.0
587660.0 1121686.0 5695.0
584715.0 1119042.0 5673.0
584606.0 1119015.0 5647.0
584092.0 1118487.0 5668.0
585214.0 1119817.0 5756.0
583566.0 1118198.0 5673.0
585139.0 1119802.0 5651.0
585381.0 1120243.0 5690.0
583403.0 1118743.0 5736.0
583284.0 1118820.0 5764.0
583289.0 1118929.0 5818.0
580619.0 1117243.0 5817.0
580445.0 1118138.0 5765.0
580344.0 1118125.0 5644.0
580293.0 1118970.0 5652.0
587846.0 1121703.0 5704.0
588063.0 1120890.0 5825.0
588432.0 1118463.0 5687.0
589009.0 1113931.0 5674.0
587852.0 1114481.0 5747.0
587859.0 1113324.0 5734.0
587549.0 1113424.0 5663.0
585066.0 1121261.0 5687.0
585144.0 1120088.0 5657.0
586545.0 1113738.0 5644.0
586768.0 1112943.0 5696.0
584838.0 1119096.0 5667.0
586169.0 1114323.0 5810.0
586191.0 1113956.0 5653.0
586343.0 1113600.0 5778.0
586573.0 1112803.0 5817.0
584108.0 1120851.0 5812.0
584589.0 1118792.0 5733.0
585959.0 1113780.0 5754.0
586342.0 1112237.0 5746.0
583493.0 1119153.0 5660.0
583908.0 1117894.0 5782.0
584262.0 1116297.0 5732.0
584080.0 1116119.0 5655.0
584196.0 1115730.0 5686.0
583205.0 1118811.0 5743.0
583645.0 1117217.0 5787.0
583940.0 1116031.0 5780.0
584056.0 1115655.0 5773.0
583452.0 1114440.0 5732.0
582992.0 1115162.0 5718.0
585040.0 1120292.0 5689.0
582532.0 1119363.0 5816.0
585331.0 1120010.0 5722.0
584800.0 1119073.0 5697.0
583322.0 1118627.0 5678.0
582974.0 1118479.0 5750.0
582658.0 1118352.0 5736.0
585088.0 1118988.0 5797.0
584720.0 1118944.0 5651.0
583280.0 1118410.0 5645.0
583642.0 1118345.0 5718.0
585453.0 1118832.0 5781.0
581881.0 1117503.0 5764.0
586549.0 1118543.0 5766.0
583896.0 1117669.0 5699.0
580566.0 1116512.0 5721.0
583941.0 1117290.0 5776.0
583586.0 1117128.0 5810.0
587441.0 1118049.0 5761.0
583618.0 1116749.0 5801.0
584883.0 1116848.0 5772.0
584528.0 1116715.0 5672.0
584151.0 1116296.0 5713.0
583810.0 1116163.0 5819.0
584256.0 1116098.0 5664.0
584093.0 1115781.0 5739.0
582963.0 1115374.0 5750.0
583152.0 1114901.0 5689.0
588097.0 1114588.0 5809.0
585860.0 1113875.0 5748.0
586488.0 1113750.0 5713.0
586135.0 1113665.0 5721.0
588880.0 1114181.0 5719.0
586476.0 1113400.0 5793.0
589248.0 1113899.0 5810.0
586669.0 1113045.0 5819.0
586637.0 1112685.0 5790.0
580233.0 1118469.0 5480.0
580300.0 1118465.0 5569.0
580439.0 1116349.0 5459.0
582595.0 1115098.0 5512.0
583533.0 1117751.0 5556.0
583662.0 1117817.0 5538.0
583172.0 1114892.0 5472.0
583748.0 1118025.0 5629.0
583882.0 1117972.0 5594.0
584197.0 1119161.0 5457.0
583880.0 1117780.0 5636.0
584126.0 1118346.0 5507.0
584958.0 1121218.0 5589.0
584969.0 1120088.0 5455.0
585040.0 1119762.0 5590.0
584391.0 1116095.0 5605.0
585226.0 1120092.0 5633.0
585431.0 1119784.0 5438.0
586403.0 1121113.0 5580.0
585431.0 1116139.0 5511.0
585359.0 1115975.0 5600.0
586412.0 1113986.0 5555.0
586622.0 1114320.0 5475.0
586713.0 1113860.0 5617.0
587029.0 1114183.0 5538.0
587508.0 1114214.0 5466.0
588858.0 1118418.0 5506.0
588092.0 1114560.0 5550.0
588343.0 1114310.0 5442.0
587981.0 1113263.0 5623.0
588709.0 1114018.0 5538.0
586977.0 1112773.0 5605.0
587598.0 1113500.0 5558.0
587176.0 1113186.0 5531.0
588318.0 1114427.0 5540.0
587048.0 1113145.0 5547.0
587456.0 1113924.0 5593.0
587431.0 1113927.0 5547.0
587475.0 1113963.0 5468.0
587736.0 1114320.0 5458.0
587924.0 1114608.0 5456.0
587106.0 1114028.0 5466.0
586973.0 1114210.0 5548.0
586508.0 1113968.0 5609.0
586310.0 1113936.0 5584.0
588613.0 1118456.0 5582.0
585551.0 1116459.0 5618.0
585292.0 1116222.0 5500.0
582653.0 1115726.0 5525.0
583964.0 1118053.0 5577.0
583554.0 1117793.0 5571.0
584146.0 1118405.0 5632.0
585894.0 1120268.0 5608.0
583558.0 1117892.0 5572.0
584092.0 1118438.0 5520.0
585885.0 1120369.0 5538.0
584918.0 1119719.0 5522.0
585221.0 1120297.0 5569.0
585038.0 1120301.0 5505.0
583619.0 1119260.0 5625.0
584945.0 1120962.0 5584.0
585162.0 1121458.0 5620.0
580246.0 1118122.0 5477.0
580321.0 1118410.0 5554.0
588622.0 1118374.0 5452.0
588162.0 1114313.0 5484.0
586698.0 1118583.0 5634.0
587468.0 1114386.0 5441.0
587627.0 1114018.0 5513.0
587744.0 1113665.0 5596.0
587302.0 1114240.0 5513.0
585514.0 1119747.0 5462.0
586996.0 1114348.0 5469.0
587323.0 1113112.0 5468.0
586625.0 1114282.0 5472.0
584794.0 1120035.0 5440.0
585380.0 1116723.0 5470.0
585086.0 1116681.0 5567.0
585157.0 1116285.0 5469.0
585255.0 1115885.0 5467.0
584776.0 1116539.0 5548.0
584865.0 1116176.0 5583.0
584570.0 1115978.0 5544.0
584328.0 1115848.0 5623.0
584428.0 1115427.0 5500.0
582648.0 1115119.0 5616.0
585121.0 1121416.0 5614.0
585124.0 1121345.0 5456.0
585003.0 1119947.0 5535.0
580177.0 1117897.0 5496.0
583677.0 1118807.0 5544.0
583288.0 1118300.0 5576.0
582925.0 1118189.0 5454.0
583677.0 1118201.0 5629.0
583292.0 1118143.0 5461.0
584194.0 1118212.0 5610.0
583868.0 1118014.0 5637.0
583488.0 1117947.0 5559.0
580264.0 1116848.0 5442.0
584197.0 1117902.0 5536.0
583515.0 1117595.0 5622.0
588502.0 1118454.0 5621.0
585240.0 1116737.0 5500.0
584867.0 1116588.0 5618.0
585273.0 1116514.0 5512.0
584953.0 1116392.0 5502.0
584597.0 1116234.0 5609.0
585185.0 1116257.0 5456.0
584452.0 1115957.0 5584.0
586744.0 1114459.0 5582.0
586933.0 1114304.0 5494.0
588234.0 1114463.0 5439.0
587550.0 1114225.0 5455.0
587762.0 1113490.0 5585.0
586951.0 1112912.0 5454.0
580241.0 1116569.0 5352.0
582505.0 1116967.0 5242.0
582595.0 1116903.0 5303.0
583098.0 1117803.0 5330.0
582956.0 1116100.0 5400.0
583879.0 1118987.0 5423.0
584068.0 1119022.0 5410.0
584786.0 1119902.0 5338.0
587410.0 1113826.0 5251.0
587539.0 1113588.0 5342.0
588449.0 1114194.0 5320.0
588426.0 1114232.0 5431.0
587195.0 1113357.0 5296.0
587788.0 1114007.0 5300.0
588095.0 1114505.0 5400.0
588129.0 1114535.0 5260.0
587272.0 1113874.0 5346.0
586623.0 1114360.0 5333.0
588821.0 1118315.0 5405.0
586831.0 1118281.0 5329.0
582722.0 1114877.0 5399.0
582594.0 1116853.0 5342.0
584136.0 1118688.0 5398.0
584003.0 1118641.0 5346.0
584686.0 1119656.0 5392.0
584577.0 1119695.0 5258.0
585065.0 1120600.0 5432.0
580256.0 1116637.0 5367.0
588839.0 1118391.0 5400.0
588428.0 1114188.0 5311.0
586736.0 1118170.0 5372.0
587804.0 1114002.0 5245.0
587904.0 1113614.0 5258.0
587360.0 1114726.0 5398.0
585109.0 1121011.0 5240.0
587196.0 1113494.0 5289.0
586862.0 1114174.0 5433.0
586994.0 1112636.0 5325.0
584826.0 1119662.0 5383.0
585644.0 1116649.0 5340.0
586769.0 1112536.0 5401.0
584492.0 1119863.0 5342.0
585455.0 1116315.0 5375.0
582944.0 1114692.0 5402.0
584681.0 1119863.0 5364.0
584416.0 1119077.0 5366.0
584006.0 1118618.0 5402.0
584003.0 1118438.0 5429.0
586773.0 1118380.0 5359.0
586730.0 1117973.0 5308.0
588875.0 1118356.0 5423.0
585664.0 1116693.0 5280.0
585530.0 1116404.0 5372.0
585100.0 1115980.0 5400.0
586002.0 1114860.0 5255.0
587661.0 1114581.0 5322.0
587291.0 1114504.0 5378.0
587860.0 1114399.0 5256.0
587218.0 1114051.0 5360.0
588504.0 1114195.0 5363.0
587790.0 1113951.0 5413.0
587425.0 1113866.0 5360.0
587407.0 1113427.0 5437.0
586920.0 1112645.0 5292.0
583214.0 1117477.0 5126.0
582808.0 1114762.0 5097.0
585923.0 1114672.0 5229.0
586323.0 1114494.0 5040.0
585937.0 1113019.0 5046.0
586348.0 1114414.0 5053.0
587331.0 1114269.0 5197.0
587365.0 1113638.0 5079.0
588257.0 1115522.0 5178.0
588152.0 1113161.0 5049.0
588422.0 1114012.0 5205.0
588294.0 1114058.0 5192.0
587799.0 1113777.0 5212.0
587812.0 1113770.0 5056.0
586439.0 1112690.0 5184.0
588142.0 1114526.0 5163.0
585988.0 1112891.0 5067.0
588189.0 1115360.0 5154.0
588275.0 1115633.0 5206.0
586497.0 1114299.0 5166.0
585953.0 1114562.0 5226.0
585966.0 1114709.0 5176.0
587000.0 1117879.0 5130.0
582538.0 1116732.0 5226.0
584714.0 1120217.0 5156.0
580294.0 1116983.0 5206.0
587977.0 1115330.0 5076.0
588206.0 1114523.0 5057.0
588480.0 1113804.0 5149.0
586922.0 1118376.0 5198.0
587056.0 1117989.0 5196.0
587213.0 1113731.0 5127.0
587019.0 1113910.0 5197.0
586872.0 1113770.0 5122.0
586889.0 1113372.0 5080.0
587107.0 1112634.0 5042.0
586853.0 1112995.0 5138.0
586180.0 1114585.0 5180.0
586285.0 1114151.0 5135.0
586513.0 1113327.0 5205.0
585826.0 1113316.0 5069.0
583879.0 1119427.0 5163.0
580359.0 1118697.0 5235.0
584603.0 1119564.0 5222.0
584266.0 1119015.0 5157.0
583102.0 1117602.0 5217.0
580145.0 1116538.0 5235.0
587018.0 1118170.0 5070.0
582793.0 1114746.0 5041.0
588113.0 1115636.0 5117.0
586311.0 1114546.0 5137.0
586524.0 1114296.0 5222.0
588160.0 1114215.0 5125.0
586953.0 1113444.0 5101.0
586664.0 1113314.0 5134.0
586592.0 1112585.0 5203.0
586859.0 1112464.0 5110.0
586552.0 1112356.0 5098.0
585956.0 1113207.0 4957.0
586067.0 1113330.0 4992.0
586021.0 1113159.0 5023.0
586259.0 1113528.0 4950.0
586486.0 1113996.0 4915.0
587024.0 1113845.0 5031.0
587900.0 1115246.0 4921.0
587983.0 1114020.0 4944.0
588353.0 1113988.0 4907.0
588513.0 1113671.0 4913.0
588795.0 1113542.0 5024.0
588452.0 1113774.0 4991.0
586894.0 1113035.0 4924.0
587266.0 1113586.0 5033.0
586541.0 1113490.0 5027.0
586094.0 1113277.0 5024.0
585836.0 1113133.0 4937.0
585645.0 1113074.0 4913.0
586227.0 1113651.0 4851.0
585468.0 1113016.0 4960.0
586454.0 1114492.0 4926.0
586310.0 1114552.0 4942.0
582718.0 1114888.0 4969.0
583964.0 1119112.0 4847.0
583825.0 1119253.0 4917.0
587201.0 1118078.0 4918.0
587727.0 1115028.0 4873.0
588075.0 1113766.0 4875.0
587511.0 1114773.0 4994.0
587934.0 1113166.0 4998.0
586574.0 1114480.0 4969.0
586316.0 1114609.0 4952.0
586713.0 1113415.0 5005.0
585489.0 1113151.0 4960.0
587299.0 1118318.0 4863.0
587037.0 1117895.0 5008.0
587805.0 1115547.0 5037.0
588003.0 1115395.0 5013.0
587714.0 1115289.0 4980.0
586711.0 1113797.0 4898.0
588417.0 1113928.0 5030.0
588066.0 1113806.0 5018.0
585814.0 1113109.0 4975.0
585521.0 1113056.0 4862.0
588927.0 1113528.0 4852.0
584078.0 1119332.0 4702.0
585869.0 1113511.0 4709.0
586369.0 1114638.0 4736.0
586466.0 1114579.0 4766.0
587413.0 1114970.0 4816.0
587751.0 1114799.0 4719.0
588000.0 1114666.0 4820.0
588477.0 1113181.0 4808.0
588525.0 1114226.0 4664.0
587730.0 1113711.0 4651.0
588461.0 1114735.0 4733.0
587888.0 1114502.0 4792.0
587773.0 1114582.0 4672.0
587810.0 1114955.0 4763.0
587788.0 1115136.0 4796.0
586046.0 1113558.0 4764.0
585563.0 1113250.0 4801.0
584100.0 1119310.0 4669.0
588419.0 1114648.0 4670.0
588648.0 1113819.0 4806.0
587997.0 1114915.0 4772.0
588416.0 1113349.0 4694.0
587709.0 1114641.0 4712.0
588103.0 1113379.0 4727.0
588199.0 1113038.0 4754.0
586740.0 1114300.0 4662.0
586954.0 1112969.0 4760.0
586554.0 1113839.0 4836.0
587768.0 1115101.0 4806.0
587986.0 1114933.0 4802.0
588483.0 1114747.0 4802.0
586976.0 1113935.0 4799.0
588722.0 1114114.0 4789.0
588661.0 1113738.0 4725.0
588249.0 1113285.0 4736.0
588300.0 1113117.0 4713.0
585510.0 1114706.0 4438.0
587416.0 1118392.0 4596.0
586667.0 1114649.0 4576.0
587483.0 1118071.0 4548.0
587002.0 1114275.0 4526.0
587412.0 1114075.0 4487.0
588594.0 1114359.0 4527.0
586803.0 1113719.0 4468.0
587315.0 1114319.0 4571.0
587172.0 1114366.0 4567.0
587433.0 1114805.0 4510.0
586887.0 1114552.0 4517.0
587526.0 1117927.0 4501.0
588719.0 1114289.0 4461.0
588208.0 1115034.0 4494.0
588506.0 1114221.0 4577.0
587125.0 1114304.0 4465.0
586820.0 1114543.0 4509.0
586586.0 1114655.0 4603.0
587029.0 1113020.0 4443.0
587155.0 1112594.0 4517.0
585614.0 1114582.0 4524.0
585283.0 1114464.0 4459.0
587348.0 1118134.0 4629.0
587081.0 1114467.0 4453.0
588732.0 1114567.0 4520.0
588228.0 1113718.0 4517.0
585433.0 1114646.0 4380.0
585505.0 1114404.0 4302.0
585607.0 1113699.0 4306.0
586257.0 1113822.0 4301.0
587698.0 1118068.0 4358.0
587591.0 1113612.0 4241.0
587711.0 1113773.0 4380.0
588574.0 1114403.0 4410.0
587245.0 1113033.0 4317.0
588416.0 1114312.0 4369.0
587694.0 1113640.0 4331.0
587244.0 1113077.0 4348.0
587548.0 1113626.0 4282.0
587331.0 1113939.0 4405.0
588428.0 1115499.0 4429.0
586964.0 1114139.0 4322.0
586320.0 1113816.0 4287.0
585554.0 1113662.0 4370.0
585694.0 1113924.0 4241.0
585301.0 1113676.0 4243.0
585768.0 1114236.0 4303.0
586295.0 1114779.0 4344.0
585410.0 1113938.0 4255.0
585444.0 1114080.0 4245.0
585548.0 1114620.0 4355.0
585401.0 1114578.0 4281.0
587710.0 1117648.0 4261.0
588027.0 1117988.0 4280.0
587591.0 1118361.0 4364.0
587697.0 1118011.0 4344.0
587307.0 1114739.0 4422.0
586916.0 1114094.0 4381.0
587090.0 1113288.0 4336.0
587193.0 1112888.0 4284.0
587282.0 1112501.0 4323.0
586292.0 1114809.0 4365.0
585859.0 1114465.0 4325.0
585951.0 1114037.0 4284.0
585646.0 1114215.0 4324.0
585716.0 1113869.0 4240.0
585377.0 1114050.0 4344.0
585457.0 1113702.0 4406.0
587698.0 1118268.0 4404.0
587587.0 1118011.0 4400.0
587634.0 1117804.0 4280.0
585572.0 1114534.0 4403.0
588270.0 1115157.0 4365.0
587145.0 1114902.0 4239.0
586799.0 1114682.0 4413.0
585701.0 1114361.0 4338.0
587385.0 1114631.0 4399.0
586280.0 1113885.0 4327.0
587165.0 1112795.0 4421.0
587260.0 1112628.0 4346.0
585583.0 1114104.0 4237.0
585957.0 1114018.0 4196.0
587180.0 1115287.0 4081.0
588437.0 1114320.0 4232.0
588433.0 1114324.0 4202.0
586681.0 1113660.0 4206.0
588084.0 1115355.0 4167.0
587829.0 1115223.0 4121.0
587645.0 1115146.0 4097.0
586123.0 1113770.0 4207.0
587213.0 1114930.0 4208.0
586011.0 1113851.0 4176.0
587066.0 1114945.0 4131.0
585402.0 1114107.0 4218.0
588482.0 1114687.0 4153.0
587968.0 1115438.0 4097.0
587054.0 1115125.0 4096.0
587516.0 1113488.0 4076.0
586804.0 1115020.0 4120.0
586511.0 1113651.0 4178.0
586020.0 1114555.0 4119.0
585352.0 1114264.0 4188.0
585951.0 1114198.0 4193.0
585599.0 1114122.0 4202.0
587653.0 1114399.0 4135.0
587200.0 1113468.0 4190.0
587835.0 1113372.0 4182.0
587176.0 1113173.0 4188.0
587872.0 1113207.0 4115.0
586746.0 1115203.0 3894.0
587486.0 1115383.0 3867.0
587657.0 1115236.0 3974.0
587954.0 1115465.0 3953.0
588063.0 1114042.0 3930.0
588400.0 1115675.0 4005.0
588097.0 1113993.0 3996.0
587372.0 1114535.0 3844.0
588425.0 1115714.0 3969.0
587840.0 1115448.0 3926.0
587672.0 1115462.0 3878.0
586936.0 1114908.0 3938.0
586873.0 1115049.0 3976.0
586923.0 1115230.0 3950.0
586743.0 1115190.0 3911.0
585962.0 1114577.0 3996.0
588212.0 1115462.0 3981.0
588365.0 1115092.0 4031.0
587463.0 1115626.0 3853.0
586851.0 1114664.0 3994.0
587283.0 1113148.0 3994.0
586891.0 1115379.0 3996.0
587983.0 1115520.0 3974.0
587627.0 1115471.0 3975.0
586900.0 1115188.0 4018.0
586016.0 1114628.0 3886.0
588381.0 1115086.0 3942.0
588369.0 1114704.0 3939.0
587834.0 1113802.0 3919.0
587523.0 1113627.0 4002.0
587501.0 1114557.0 3730.0
587358.0 1113685.0 3798.0
588208.0 1115701.0 3822.0
587573.0 1115527.0 3795.0
587486.0 1115593.0 3681.0
587528.0 1115759.0 3761.0
588486.0 1115519.0 3835.0
588021.0 1115837.0 3664.0
587741.0 1115772.0 3768.0
587540.0 1115734.0 3767.0
587416.0 1113460.0 3747.0
587052.0 1113482.0 3540.0
587036.0 1113424.0 3617.0
588219.0 1114422.0 3615.0
587941.0 1114261.0 3601.0
588007.0 1114088.0 3306.0
587236.0 1113457.0 3406.0
586811.0 1112416.0 3066.0
586847.0 1112295.0 3095.0
588083.0 1114121.0 3086.0
588181.0 1114251.0 3224.0
586602.0 1112495.0 3051.0
588125.0 1114180.0 3069.0
583876.0 1119128.0 2997.0
585665.0 1112864.0 2893.0
585779.0 1112880.0 2914.0
586254.0 1112295.0 2968.0
586412.0 1112359.0 2910.0
586197.0 1112223.0 2970.0
586514.0 1113100.0 2976.0
585839.0 1112873.0 2930.0
585793.0 1112931.0 2958.0
585501.0 1112966.0 2904.0
586839.0 1113037.0 2842.0
586692.0 1112753.0 2869.0
586405.0 1112409.0 2958.0
586200.0 1112341.0 2955.0
585591.0 1113078.0 2931.0
587043.0 1113315.0 2903.0
586690.0 1113150.0 2968.0
586293.0 1113026.0 2974.0
585889.0 1112975.0 2890.0
585526.0 1112856.0 2843.0
586757.0 1112984.0 2923.0
586750.0 1112780.0 2840.0
586432.0 1112581.0 3012.0
586650.0 1112387.0 3020.0
586291.0 1112284.0 2902.0
589224.0 1120837.0 2665.0
586377.0 1112608.0 2837.0
586741.0 1113173.0 2826.0
588482.0 1120933.0 2804.0
588715.0 1120857.0 2514.0
589192.0 1121070.0 2507.0
588521.0 1120846.0 2468.0
587785.0 1122060.0 2469.0
588546.0 1120128.0 2290.0
588547.0 1119806.0 2268.0
588766.0 1120911.0 2429.0
588988.0 1121599.0 2390.0
588036.0 1116745.0 2249.0
588749.0 1120084.0 2365.0
588981.0 1121162.0 2425.0
589192.0 1119545.0 2411.0
587878.0 1116410.0 2248.0
588900.0 1119698.0 2248.0
588377.0 1121568.0 2242.0
589219.0 1121858.0 2269.0
588873.0 1121025.0 2403.0
587913.0 1121756.0 2415.0
587372.0 1116553.0 2341.0
588717.0 1121224.0 2300.0
588505.0 1120163.0 2253.0
588151.0 1120021.0 2270.0
587840.0 1119899.0 2254.0
587581.0 1116678.0 2105.0
587846.0 1117773.0 2097.0
588072.0 1118911.0 2111.0
588300.0 1119907.0 2129.0
588290.0 1119049.0 2070.0
587830.0 1116493.0 2229.0
587954.0 1116888.0 2203.0
588589.0 1119555.0 2132.0
588310.0 1117858.0 2205.0
588423.0 1117886.0 2236.0
588252.0 1116738.0 2215.0
588954.0 1119658.0 2189.0
587726.0 1116304.0 2126.0
587735.0 1116532.0 2104.0
587869.0 1116889.0 2163.0
588253.0 1117682.0 2179.0
589018.0 1118643.0 2060.0
587701.0 1117504.0 2216.0
587983.0 1117989.0 2112.0
588282.0 1118510.0 2063.0
588008.0 1118711.0 2053.0
588297.0 1119185.0 2085.0
588961.0 1119774.0 2056.0
588624.0 1119819.0 2216.0
587845.0 1119638.0 2211.0
588599.0 1121409.0 2122.0
588385.0 1121519.0 2206.0
588298.0 1119731.0 2169.0
588056.0 1119702.0 2176.0
588115.0 1119299.0 2066.0
587864.0 1119432.0 2185.0
587945.0 1119004.0 2045.0
588264.0 1117753.0 2148.0
587611.0 1119459.0 2128.0
587664.0 1119065.0 2045.0
588070.0 1117832.0 2209.0
587585.0 1117597.0 2043.0
587801.0 1116822.0 2140.0
587889.0 1116393.0 2170.0
587378.0 1117342.0 2086.0
587486.0 1116960.0 2128.0
587609.0 1116584.0 2082.0
587725.0 1116187.0 2072.0
587170.0 1116934.0 2181.0
588222.0 1121662.0 2098.0
589294.0 1121781.0 2107.0
589103.0 1120025.0 2132.0
588448.0 1119801.0 2047.0
588099.0 1119642.0 2172.0
587759.0 1119532.0 2121.0
588165.0 1119361.0 2051.0
587792.0 1119234.0 2056.0
588417.0 1117990.0 2162.0
588075.0 1117861.0 2145.0
587719.0 1117741.0 2113.0
587981.0 1117705.0 2050.0
587132.0 1117008.0 2201.0
587690.0 1116884.0 2211.0
587342.0 1116842.0 2149.0
587467.0 1116657.0 2093.0
587745.0 1121985.0 1953.0
587391.0 1116677.0 2032.0
587982.0 1117743.0 2032.0
588310.0 1118744.0 2032.0
588605.0 1118955.0 2021.0
588785.0 1119228.0 2006.0
589081.0 1118579.0 1930.0
587694.0 1116692.0 1892.0
589291.0 1118521.0 1902.0
587207.0 1116875.0 1987.0
587468.0 1117391.0 1850.0
588950.0 1119116.0 1838.0
588414.0 1118802.0 1972.0
588843.0 1119253.0 1888.0
588454.0 1119004.0 2015.0
588604.0 1119192.0 1961.0
587622.0 1119559.0 1844.0
588173.0 1118899.0 1951.0
587612.0 1117209.0 1909.0
587253.0 1117684.0 1899.0
586914.0 1112881.0 2023.0
588504.0 1119528.0 1917.0
588045.0 1119016.0 1911.0
587346.0 1117684.0 1940.0
587305.0 1117443.0 1933.0
587754.0 1116750.0 1959.0
587707.0 1116491.0 1956.0
587057.0 1113187.0 2034.0
587604.0 1119787.0 1641.0
587635.0 1119720.0 1759.0
587671.0 1119732.0 1790.0
587648.0 1119334.0 1809.0
587442.0 1117460.0 1750.0
588541.0 1118643.0 1717.0
589165.0 1119572.0 1753.0
589062.0 1118567.0 1754.0
589213.0 1119723.0 1814.0
589456.0 1118696.0 1701.0
587430.0 1117504.0 1700.0
589069.0 1119266.0 1740.0
587444.0 1117601.0 1697.0
588999.0 1119310.0 1794.0
589132.0 1119502.0 1647.0
589112.0 1119716.0 1742.0
588172.0 1120076.0 1773.0
587591.0 1119743.0 1684.0
588548.0 1119172.0 1650.0
587307.0 1119327.0 1825.0
587571.0 1118009.0 1662.0
587670.0 1117664.0 1806.0
587868.0 1121644.0 1835.0
589149.0 1121290.0 1815.0
587364.0 1119207.0 1755.0
588690.0 1119354.0 1745.0
587652.0 1119005.0 1805.0
588768.0 1119138.0 1726.0
588088.0 1118875.0 1830.0
587613.0 1117650.0 1715.0
587478.0 1117302.0 1776.0
587355.0 1119335.0 1494.0
587399.0 1118770.0 1514.0
588051.0 1120067.0 1629.0
589502.0 1119439.0 1534.0
589478.0 1119129.0 1548.0
587386.0 1118912.0 1629.0
587584.0 1119831.0 1535.0
587321.0 1119575.0 1447.0
589314.0 1119195.0 1468.0
589092.0 1118996.0 1509.0
588844.0 1119035.0 1622.0
587264.0 1119782.0 1569.0
587289.0 1119599.0 1605.0
589037.0 1119569.0 1492.0
589125.0 1119314.0 1518.0
587687.0 1118798.0 1568.0
587354.0 1118746.0 1444.0
589193.0 1119111.0 1486.0
588824.0 1118954.0 1570.0
588442.0 1118868.0 1503.0
588957.0 1118781.0 1464.0
587222.0 1119373.0 1342.0
588746.0 1118642.0 1415.0
589629.0 1119868.0 1319.0
587569.0 1117722.0 1379.0
587766.0 1118486.0 1317.0
