564583.0 1076921.0 9846.0
564615.0 1076780.0 9860.0
564825.0 1077514.0 10028.0
564808.0 1076813.0 9872.0
565201.0 1078376.0 9854.0
564693.0 1075987.0 9885.0
564939.0 1077132.0 9916.0
565250.0 1078302.0 9868.0
565059.0 1077211.0 9988.0
565568.0 1078041.0 9974.0
565482.0 1077096.0 10023.0
560583.0 1067985.0 10009.0
560413.0 1068200.0 9875.0
560272.0 1068278.0 9851.0
559335.0 1067601.0 9927.0
559863.0 1068206.0 9949.0
559750.0 1068201.0 10003.0
565412.0 1075101.0 9848.0
559171.0 1068615.0 9861.0
563084.0 1072933.0 9948.0
559542.0 1069257.0 9956.0
562836.0 1072913.0 9897.0
562827.0 1073034.0 9867.0
562803.0 1073078.0 9845.0
562897.0 1073808.0 9869.0
564829.0 1075990.0 10018.0
565361.0 1076874.0 9986.0
562545.0 1074192.0 9887.0
564742.0 1076520.0 9845.0
562407.0 1074320.0 9843.0
564935.0 1077091.0 9907.0
562308.0 1074510.0 9856.0
564561.0 1076957.0 9889.0
562317.0 1074690.0 9859.0
562827.0 1075310.0 9985.0
564491.0 1077031.0 9839.0
561832.0 1074329.0 9895.0
561841.0 1074381.0 9846.0
564637.0 1077413.0 9925.0
564577.0 1077396.0 9895.0
565541.0 1078553.0 9945.0
561967.0 1074697.0 9869.0
565308.0 1078336.0 9888.0
562652.0 1075626.0 9896.0
563113.0 1076225.0 9992.0
564826.0 1077891.0 9838.0
565320.0 1078500.0 9871.0
562851.0 1076036.0 9957.0
565185.0 1078923.0 9890.0
564846.0 1078690.0 9843.0
559538.0 1073628.0 9930.0
560389.0 1074737.0 9940.0
562666.0 1076980.0 9919.0
561800.0 1076638.0 9990.0
560119.0 1075046.0 9953.0
564342.0 1080136.0 9985.0
564268.0 1080276.0 9972.0
561912.0 1078166.0 9932.0
564080.0 1080399.0 9889.0
564281.0 1080658.0 9878.0
561671.0 1078240.0 9887.0
563945.0 1080513.0 9848.0
560987.0 1078209.0 9861.0
559519.0 1077195.0 9865.0
559621.0 1077423.0 9850.0
559875.0 1079067.0 9957.0
560518.0 1079837.0 10001.0
557366.0 1081247.0 9909.0
556489.0 1081148.0 10001.0
566009.0 1077907.0 10027.0
565691.0 1077857.0 9907.0
565973.0 1077011.0 10030.0
565426.0 1078166.0 9959.0
565570.0 1077381.0 9903.0
565722.0 1076996.0 10024.0
564546.0 1080271.0 9879.0
565447.0 1076896.0 9954.0
565493.0 1076496.0 9841.0
565700.0 1075592.0 9849.0
565125.0 1077090.0 9965.0
565214.0 1076692.0 9937.0
565521.0 1075433.0 9854.0
564829.0 1077030.0 9879.0
564716.0 1076715.0 9898.0
563708.0 1075494.0 9918.0
561748.0 1080006.0 9926.0
563009.0 1075367.0 9988.0
561662.0 1077977.0 9949.0
563068.0 1072624.0 9999.0
561374.0 1077881.0 9928.0
561548.0 1077001.0 9972.0
560326.0 1081035.0 9865.0
561019.0 1078182.0 9908.0
561091.0 1077838.0 9890.0
562043.0 1074245.0 9964.0
560674.0 1078315.0 9855.0
561777.0 1074156.0 9912.0
560807.0 1076879.0 9936.0
559820.0 1079490.0 9998.0
559941.0 1079129.0 10032.0
559682.0 1077928.0 10004.0
559823.0 1077502.0 9965.0
559965.0 1075073.0 9866.0
558457.0 1076496.0 9926.0
560629.0 1068015.0 10026.0
560318.0 1068070.0 10001.0
559646.0 1069303.0 9909.0
560019.0 1068123.0 10008.0
554585.0 1070622.0 10002.0
556864.0 1081187.0 10012.0
556478.0 1081114.0 9851.0
560890.0 1080132.0 10019.0
561838.0 1080154.0 9848.0
561492.0 1080080.0 9838.0
563812.0 1080569.0 9887.0
564167.0 1080386.0 9938.0
564288.0 1080173.0 9894.0
560544.0 1078262.0 9868.0
561183.0 1078120.0 9856.0
561928.0 1078129.0 10019.0
561615.0 1077949.0 9956.0
561251.0 1077839.0 9964.0
560886.0 1077790.0 9846.0
559795.0 1077372.0 9856.0
563121.0 1077978.0 9896.0
560541.0 1077041.0 10019.0
560992.0 1076986.0 10015.0
560627.0 1076892.0 9894.0
565496.0 1078319.0 9974.0
560914.0 1076755.0 9857.0
565831.0 1077845.0 9939.0
564797.0 1077433.0 10036.0
564850.0 1077153.0 9928.0
563429.0 1076686.0 9945.0
565279.0 1077045.0 9928.0
564908.0 1076941.0 9884.0
562346.0 1076063.0 9850.0
566013.0 1077041.0 9978.0
565650.0 1076936.0 9975.0
565316.0 1076752.0 10001.0
564911.0 1076700.0 9951.0
562814.0 1075914.0 10005.0
560985.0 1075269.0 10011.0
565512.0 1076667.0 9908.0
564613.0 1076047.0 9961.0
565010.0 1075839.0 10026.0
560370.0 1074250.0 10031.0
565517.0 1075545.0 9958.0
565143.0 1075469.0 9844.0
562925.0 1074625.0 10036.0
561759.0 1074312.0 9842.0
559549.0 1073546.0 9844.0
565988.0 1075418.0 9912.0
565685.0 1075350.0 9885.0
562087.0 1074110.0 9856.0
561740.0 1073970.0 9913.0
559919.0 1073316.0 9998.0
554501.0 1070362.0 9965.0
563098.0 1072763.0 9856.0
559788.0 1069467.0 9877.0
559092.0 1069230.0 9867.0
560370.0 1068523.0 9979.0
559300.0 1068199.0 10035.0
560920.0 1068379.0 9932.0
560156.0 1068258.0 9864.0
559822.0 1068088.0 10022.0
560270.0 1068028.0 10003.0
558603.0 1076564.0 9711.0
559893.0 1080425.0 9662.0
559263.0 1073292.0 9702.0
560068.0 1077046.0 9714.0
558987.0 1069168.0 9649.0
559695.0 1068484.0 9685.0
562040.0 1074714.0 9769.0
562663.0 1075659.0 9822.0
563156.0 1077807.0 9816.0
562436.0 1073589.0 9697.0
562988.0 1076346.0 9763.0
563923.0 1080306.0 9758.0
560801.0 1066515.0 9806.0
561317.0 1068137.0 9670.0
564048.0 1080046.0 9735.0
561404.0 1068023.0 9690.0
561494.0 1067224.0 9664.0
562989.0 1073182.0 9695.0
565029.0 1078253.0 9683.0
564667.0 1076290.0 9769.0
565342.0 1074907.0 9679.0
561421.0 1067110.0 9674.0
560706.0 1066480.0 9727.0
561430.0 1067987.0 9698.0
559850.0 1068309.0 9655.0
559673.0 1068473.0 9665.0
559110.0 1068692.0 9692.0
559013.0 1068744.0 9692.0
558919.0 1068764.0 9667.0
565085.0 1075432.0 9713.0
559005.0 1068970.0 9742.0
564989.0 1075407.0 9664.0
558888.0 1068917.0 9670.0
564919.0 1075549.0 9747.0
562569.0 1073767.0 9802.0
564855.0 1076139.0 9651.0
565990.0 1077457.0 9698.0
565862.0 1077705.0 9760.0
565629.0 1077774.0 9752.0
564417.0 1077038.0 9808.0
565231.0 1078018.0 9770.0
561866.0 1074457.0 9823.0
565195.0 1077965.0 9690.0
561787.0 1074423.0 9808.0
564343.0 1077128.0 9777.0
562512.0 1075305.0 9767.0
564235.0 1077080.0 9695.0
561580.0 1074435.0 9712.0
562128.0 1074993.0 9694.0
564286.0 1077330.0 9754.0
561640.0 1074614.0 9646.0
564140.0 1077289.0 9642.0
562632.0 1075868.0 9667.0
562945.0 1076373.0 9790.0
564113.0 1077460.0 9640.0
559363.0 1073545.0 9746.0
559522.0 1073887.0 9745.0
563230.0 1077751.0 9796.0
562433.0 1077035.0 9645.0
563036.0 1077701.0 9681.0
559669.0 1074306.0 9667.0
564434.0 1079505.0 9767.0
564019.0 1080092.0 9768.0
560405.0 1076504.0 9702.0
561134.0 1077696.0 9823.0
564040.0 1080769.0 9747.0
560758.0 1078326.0 9728.0
560052.0 1079623.0 9769.0
560195.0 1081505.0 9812.0
557195.0 1081264.0 9812.0
566154.0 1077620.0 9672.0
564011.0 1080870.0 9643.0
565275.0 1076292.0 9791.0
563951.0 1080153.0 9698.0
565283.0 1075127.0 9745.0
563747.0 1080405.0 9808.0
564481.0 1077515.0 9818.0
564570.0 1077122.0 9837.0
564167.0 1077237.0 9645.0
564298.0 1076848.0 9710.0
564480.0 1076023.0 9765.0
563124.0 1076494.0 9776.0
561935.0 1079946.0 9796.0
562909.0 1076223.0 9760.0
562473.0 1077008.0 9806.0
562580.0 1075441.0 9710.0
562914.0 1073871.0 9660.0
562440.0 1074620.0 9771.0
562556.0 1074227.0 9757.0
562652.0 1073807.0 9787.0
562767.0 1073398.0 9803.0
562893.0 1072997.0 9835.0
561157.0 1078333.0 9671.0
562053.0 1074876.0 9673.0
562199.0 1074480.0 9805.0
562311.0 1074058.0 9804.0
562404.0 1073631.0 9749.0
562506.0 1073224.0 9744.0
560836.0 1078564.0 9671.0
562081.0 1073842.0 9754.0
561644.0 1074521.0 9780.0
561373.0 1074214.0 9708.0
559772.0 1077019.0 9642.0
559570.0 1073991.0 9692.0
559707.0 1073580.0 9815.0
558718.0 1076261.0 9737.0
560442.0 1068476.0 9793.0
559941.0 1069220.0 9760.0
559353.0 1068337.0 9797.0
558801.0 1069156.0 9720.0
558880.0 1068711.0 9671.0
558586.0 1069167.0 9712.0
554571.0 1070240.0 9815.0
557696.0 1080779.0 9696.0
564127.0 1080715.0 9825.0
563793.0 1080294.0 9781.0
563893.0 1080098.0 9655.0
560581.0 1078936.0 9652.0
560872.0 1078458.0 9695.0
561527.0 1078268.0 9750.0
560813.0 1078101.0 9780.0
560128.0 1076983.0 9793.0
565263.0 1078575.0 9649.0
560246.0 1076885.0 9777.0
558831.0 1076342.0 9808.0
558530.0 1076162.0 9777.0
565166.0 1078309.0 9662.0
560995.0 1076558.0 9751.0
564429.0 1077361.0 9798.0
562593.0 1076803.0 9692.0
564523.0 1077089.0 9824.0
563390.0 1076479.0 9740.0
562682.0 1075729.0 9751.0
562760.0 1075478.0 9812.0
564585.0 1075871.0 9719.0
562790.0 1075278.0 9746.0
562076.0 1074739.0 9713.0
563605.0 1074981.0 9833.0
562479.0 1074534.0 9787.0
562134.0 1074450.0 9813.0
562426.0 1074259.0 9795.0
562504.0 1073994.0 9740.0
562172.0 1073868.0 9740.0
562589.0 1073689.0 9711.0
562659.0 1073328.0 9762.0
556942.0 1071379.0 9642.0
562807.0 1073047.0 9837.0
558701.0 1069209.0 9641.0
559949.0 1069334.0 9655.0
558864.0 1068948.0 9728.0
558774.0 1068413.0 9670.0
558880.0 1068162.0 9772.0
561276.0 1068486.0 9638.0
558396.0 1069857.0 9452.0
559283.0 1073508.0 9635.0
560803.0 1079857.0 9627.0
560273.0 1076395.0 9487.0
560725.0 1078506.0 9569.0
561059.0 1080503.0 9629.0
558718.0 1068574.0 9573.0
562451.0 1081115.0 9462.0
559851.0 1068483.0 9505.0
562803.0 1081136.0 9595.0
561479.0 1074554.0 9551.0
562438.0 1075440.0 9619.0
563726.0 1079980.0 9511.0
564142.0 1079530.0 9568.0
561524.0 1068147.0 9446.0
564183.0 1079523.0 9589.0
561521.0 1068142.0 9466.0
563782.0 1077416.0 9534.0
563889.0 1077218.0 9460.0
564325.0 1079413.0 9590.0
564041.0 1077397.0 9607.0
564322.0 1075893.0 9486.0
564389.0 1075996.0 9552.0
564997.0 1078328.0 9634.0
565263.0 1078616.0 9522.0
565563.0 1078605.0 9513.0
565852.0 1077539.0 9625.0
561453.0 1067174.0 9619.0
561442.0 1068303.0 9521.0
565012.0 1074822.0 9619.0
564848.0 1074956.0 9530.0
558696.0 1068753.0 9513.0
558632.0 1068812.0 9450.0
563050.0 1073462.0 9440.0
558559.0 1069033.0 9624.0
564315.0 1075860.0 9499.0
564857.0 1078000.0 9515.0
561568.0 1074643.0 9587.0
564906.0 1078220.0 9579.0
561440.0 1074603.0 9520.0
561989.0 1075153.0 9527.0
562499.0 1075751.0 9546.0
562766.0 1076175.0 9637.0
564006.0 1077515.0 9628.0
564904.0 1079220.0 9557.0
559059.0 1073270.0 9438.0
561378.0 1075997.0 9462.0
559657.0 1074414.0 9517.0
564187.0 1079512.0 9549.0
563712.0 1080026.0 9593.0
563562.0 1080194.0 9560.0
559966.0 1077041.0 9630.0
560750.0 1078453.0 9628.0
558636.0 1076538.0 9510.0
560748.0 1078586.0 9528.0
558553.0 1076623.0 9571.0
560597.0 1078810.0 9607.0
562656.0 1081092.0 9440.0
561040.0 1079710.0 9613.0
562382.0 1081147.0 9469.0
561677.0 1080848.0 9545.0
560726.0 1080163.0 9455.0
561352.0 1080777.0 9533.0
560748.0 1080241.0 9491.0
559886.0 1080122.0 9449.0
559764.0 1080322.0 9439.0
560312.0 1081172.0 9576.0
558808.0 1082687.0 9534.0
565858.0 1077430.0 9457.0
565103.0 1078503.0 9485.0
564751.0 1078918.0 9503.0
565053.0 1078146.0 9598.0
564532.0 1078776.0 9483.0
564652.0 1078361.0 9474.0
564743.0 1077902.0 9487.0
564161.0 1079381.0 9585.0
565127.0 1075466.0 9599.0
563751.0 1079994.0 9556.0
564952.0 1075451.0 9589.0
562391.0 1080919.0 9479.0
563458.0 1073684.0 9468.0
563131.0 1074078.0 9589.0
560931.0 1080456.0 9602.0
561431.0 1078391.0 9631.0
561536.0 1077979.0 9539.0
562215.0 1075049.0 9456.0
560451.0 1080843.0 9501.0
560978.0 1078745.0 9441.0
560030.0 1081848.0 9508.0
560656.0 1078968.0 9476.0
559791.0 1080198.0 9459.0
560743.0 1076404.0 9471.0
560786.0 1075073.0 9491.0
559911.0 1074649.0 9516.0
559666.0 1074765.0 9603.0
561234.0 1068394.0 9520.0
561368.0 1067987.0 9598.0
557967.0 1080485.0 9514.0
559281.0 1074709.0 9492.0
559474.0 1074355.0 9552.0
561113.0 1068003.0 9575.0
558617.0 1076595.0 9555.0
560728.0 1068289.0 9511.0
560827.0 1067807.0 9463.0
559557.0 1068379.0 9616.0
558725.0 1082667.0 9470.0
557965.0 1080609.0 9510.0
562801.0 1081235.0 9553.0
561331.0 1080736.0 9552.0
561013.0 1080037.0 9521.0
559908.0 1079673.0 9519.0
561295.0 1079797.0 9616.0
563532.0 1080031.0 9467.0
563949.0 1079897.0 9483.0
560727.0 1078681.0 9621.0
561196.0 1078519.0 9632.0
564793.0 1079246.0 9457.0
564906.0 1078752.0 9530.0
564555.0 1078673.0 9466.0
559755.0 1076938.0 9630.0
564883.0 1078507.0 9565.0
559898.0 1076782.0 9529.0
564779.0 1078250.0 9454.0
560159.0 1076626.0 9481.0
565053.0 1078036.0 9510.0
560568.0 1076485.0 9498.0
565507.0 1077847.0 9636.0
564025.0 1077293.0 9552.0
565818.0 1077678.0 9483.0
563062.0 1076636.0 9636.0
561983.0 1076330.0 9539.0
564493.0 1076885.0 9634.0
564202.0 1076060.0 9579.0
562354.0 1075447.0 9491.0
559433.0 1074399.0 9491.0
562100.0 1075069.0 9501.0
565272.0 1075336.0 9612.0
561336.0 1073985.0 9552.0
565274.0 1075045.0 9617.0
562804.0 1074133.0 9600.0
562966.0 1073928.0 9463.0
562983.0 1073525.0 9553.0
563086.0 1073255.0 9528.0
554663.0 1070230.0 9632.0
558633.0 1068687.0 9471.0
560892.0 1068334.0 9537.0
561376.0 1068162.0 9569.0
561042.0 1068096.0 9571.0
561156.0 1067808.0 9557.0
561365.0 1067217.0 9619.0
557052.0 1071231.0 9347.0
558498.0 1076578.0 9382.0
557942.0 1070248.0 9283.0
558295.0 1070038.0 9304.0
558398.0 1070112.0 9270.0
559866.0 1076573.0 9371.0
560701.0 1080354.0 9285.0
559611.0 1074516.0 9330.0
559694.0 1074544.0 9302.0
558572.0 1069099.0 9385.0
559814.0 1074611.0 9418.0
558656.0 1068854.0 9352.0
560826.0 1076081.0 9311.0
559455.0 1068801.0 9301.0
561145.0 1074721.0 9336.0
562069.0 1075391.0 9276.0
562211.0 1075440.0 9392.0
563557.0 1077218.0 9390.0
561185.0 1066750.0 9288.0
563702.0 1077303.0 9396.0
564478.0 1078757.0 9343.0
564908.0 1078791.0 9364.0
565192.0 1078960.0 9250.0
564372.0 1075528.0 9373.0
565232.0 1078953.0 9239.0
564415.0 1075458.0 9352.0
565433.0 1079040.0 9422.0
564607.0 1075205.0 9347.0
565980.0 1074246.0 9336.0
561443.0 1066663.0 9346.0
561055.0 1066685.0 9285.0
560759.0 1066588.0 9324.0
561602.0 1068252.0 9322.0
562960.0 1070256.0 9319.0
563122.0 1070636.0 9244.0
562635.0 1070548.0 9314.0
562478.0 1070523.0 9271.0
564678.0 1075217.0 9331.0
557997.0 1068319.0 9362.0
558736.0 1069500.0 9429.0
564392.0 1075523.0 9410.0
558178.0 1070005.0 9238.0
565814.0 1078466.0 9390.0
565109.0 1077694.0 9291.0
565518.0 1078627.0 9362.0
564729.0 1078042.0 9388.0
565275.0 1078622.0 9310.0
562183.0 1075434.0 9329.0
564693.0 1078121.0 9375.0
562155.0 1075533.0 9244.0
564827.0 1078604.0 9299.0
564702.0 1078687.0 9323.0
557030.0 1071242.0 9327.0
559157.0 1073671.0 9353.0
559328.0 1074344.0 9285.0
560789.0 1076112.0 9311.0
563441.0 1078842.0 9309.0
565047.0 1080585.0 9320.0
560759.0 1076198.0 9300.0
565037.0 1080712.0 9298.0
563695.0 1079675.0 9281.0
559821.0 1076459.0 9251.0
560621.0 1079156.0 9431.0
559843.0 1079875.0 9429.0
565504.0 1078635.0 9287.0
565624.0 1077392.0 9385.0
564740.0 1078444.0 9284.0
566051.0 1074005.0 9373.0
564748.0 1077493.0 9275.0
563899.0 1079151.0 9316.0
564926.0 1075040.0 9428.0
563414.0 1079812.0 9349.0
563947.0 1077591.0 9300.0
564515.0 1075594.0 9434.0
564619.0 1075171.0 9332.0
564118.0 1075845.0 9410.0
563297.0 1073223.0 9328.0
562769.0 1074246.0 9436.0
562967.0 1073449.0 9428.0
560909.0 1080010.0 9421.0
562093.0 1075428.0 9300.0
561832.0 1075279.0 9339.0
560513.0 1079386.0 9279.0
561113.0 1074650.0 9289.0
561375.0 1073836.0 9344.0
560036.0 1076472.0 9301.0
560568.0 1074413.0 9309.0
559835.0 1076618.0 9338.0
560281.0 1074471.0 9246.0
559650.0 1074352.0 9373.0
559882.0 1073478.0 9364.0
561378.0 1067602.0 9287.0
561042.0 1066604.0 9298.0
560534.0 1066466.0 9433.0
559340.0 1068781.0 9320.0
557947.0 1072048.0 9393.0
558445.0 1069945.0 9281.0
557763.0 1071736.0 9398.0
558238.0 1070002.0 9352.0
558370.0 1069585.0 9409.0
558537.0 1068733.0 9418.0
557565.0 1071394.0 9427.0
558121.0 1068335.0 9390.0
562449.0 1081179.0 9415.0
560923.0 1079756.0 9347.0
564943.0 1080550.0 9326.0
564627.0 1080206.0 9351.0
565235.0 1078943.0 9343.0
564494.0 1078448.0 9314.0
566045.0 1078476.0 9238.0
560180.0 1076421.0 9320.0
560725.0 1076279.0 9349.0
564047.0 1077157.0 9271.0
561207.0 1076187.0 9299.0
565926.0 1077496.0 9416.0
565561.0 1077447.0 9288.0
564182.0 1075867.0 9380.0
564471.0 1075709.0 9280.0
564178.0 1075635.0 9298.0
564663.0 1075455.0 9398.0
564914.0 1075320.0 9328.0
564997.0 1074979.0 9390.0
563276.0 1074061.0 9296.0
562296.0 1073404.0 9340.0
557975.0 1071870.0 9268.0
558219.0 1070453.0 9266.0
558260.0 1070206.0 9240.0
558457.0 1069769.0 9305.0
558655.0 1069566.0 9379.0
558423.0 1068974.0 9313.0
558110.0 1068053.0 9249.0
560992.0 1067193.0 9246.0
557224.0 1070967.0 9091.0
557778.0 1071659.0 9052.0
557952.0 1070558.0 9074.0
558174.0 1071274.0 9086.0
558099.0 1070251.0 9222.0
557904.0 1068482.0 9155.0
558133.0 1068932.0 9108.0
558195.0 1068840.0 9157.0
559820.0 1076450.0 9213.0
558232.0 1068161.0 9192.0
560683.0 1076036.0 9165.0
561552.0 1079114.0 9129.0
561739.0 1079155.0 9207.0
561901.0 1079105.0 9227.0
561961.0 1078714.0 9141.0
559826.0 1068873.0 9043.0
561167.0 1074827.0 9201.0
562081.0 1078961.0 9084.0
561755.0 1075459.0 9111.0
562401.0 1078669.0 9173.0
561906.0 1075418.0 9212.0
563582.0 1079637.0 9126.0
560614.0 1066377.0 9181.0
563908.0 1075969.0 9156.0
564177.0 1075402.0 9117.0
565607.0 1080405.0 9081.0
564961.0 1077767.0 9198.0
565191.0 1077649.0 9234.0
565892.0 1078845.0 9144.0
560877.0 1066858.0 9233.0
560469.0 1066628.0 9205.0
560399.0 1066750.0 9050.0
562056.0 1068824.0 9048.0
566051.0 1074397.0 9221.0
562374.0 1070526.0 9187.0
562221.0 1070420.0 9123.0
558238.0 1068131.0 9199.0
558154.0 1068181.0 9222.0
563670.0 1073962.0 9039.0
558239.0 1068851.0 9190.0
563882.0 1075541.0 9133.0
563662.0 1075533.0 9062.0
564119.0 1076246.0 9065.0
565270.0 1077481.0 9128.0
563973.0 1076142.0 9038.0
565234.0 1077568.0 9175.0
566045.0 1078504.0 9157.0
566019.0 1078745.0 9208.0
558008.0 1070427.0 9176.0
563904.0 1076975.0 9223.0
557895.0 1070878.0 9103.0
563861.0 1077292.0 9139.0
564462.0 1077905.0 9088.0
561611.0 1075120.0 9152.0
562132.0 1075673.0 9078.0
557361.0 1070913.0 9109.0
560990.0 1074694.0 9039.0
563506.0 1077376.0 9192.0
557351.0 1071155.0 9137.0
557921.0 1071696.0 9094.0
564493.0 1078586.0 9193.0
564479.0 1078764.0 9172.0
565664.0 1080241.0 9148.0
565725.0 1080468.0 9099.0
559767.0 1074577.0 9218.0
563845.0 1079431.0 9217.0
560120.0 1076138.0 9218.0
562416.0 1078628.0 9163.0
563542.0 1079828.0 9219.0
561723.0 1078645.0 9195.0
561591.0 1078665.0 9085.0
561501.0 1078777.0 9125.0
561418.0 1078875.0 9104.0
561377.0 1079030.0 9121.0
561245.0 1079018.0 9069.0
561335.0 1079251.0 9092.0
561051.0 1079120.0 9062.0
560908.0 1079170.0 9138.0
560285.0 1081754.0 9231.0
566024.0 1078581.0 9192.0
565717.0 1078762.0 9162.0
565786.0 1078364.0 9085.0
565358.0 1079007.0 9130.0
565655.0 1077796.0 9203.0
564764.0 1080345.0 9191.0
565258.0 1078607.0 9225.0
565128.0 1078078.0 9186.0
564944.0 1077649.0 9178.0
565630.0 1074083.0 9113.0
564303.0 1078177.0 9110.0
565556.0 1073468.0 9207.0
564178.0 1077497.0 9183.0
564054.0 1075412.0 9039.0
561735.0 1080837.0 9066.0
561947.0 1079053.0 9110.0
562053.0 1078645.0 9080.0
561723.0 1079046.0 9205.0
561793.0 1078686.0 9095.0
562444.0 1076111.0 9073.0
562894.0 1074472.0 9099.0
561437.0 1078934.0 9177.0
561488.0 1078537.0 9227.0
562437.0 1074993.0 9186.0
560163.0 1081734.0 9166.0
560641.0 1079542.0 9040.0
560763.0 1079147.0 9065.0
562950.0 1070636.0 9110.0
560964.0 1076182.0 9164.0
559753.0 1079811.0 9160.0
560728.0 1075943.0 9133.0
562205.0 1070395.0 9099.0
560051.0 1073405.0 9124.0
560950.0 1066971.0 9184.0
560577.0 1067086.0 9103.0
560615.0 1066725.0 9046.0
558647.0 1073480.0 9189.0
558445.0 1073036.0 9234.0
559516.0 1068822.0 9191.0
557970.0 1071630.0 9223.0
558036.0 1071218.0 9108.0
558456.0 1069520.0 9166.0
557584.0 1070930.0 9101.0
558109.0 1068926.0 9056.0
558319.0 1068173.0 9045.0
557234.0 1080828.0 9085.0
558023.0 1080461.0 9224.0
564276.0 1080136.0 9098.0
563561.0 1079844.0 9199.0
561752.0 1079246.0 9047.0
561414.0 1079097.0 9104.0
561046.0 1078977.0 9169.0
563650.0 1079597.0 9198.0
561884.0 1078996.0 9089.0
561525.0 1078899.0 9155.0
563731.0 1079388.0 9058.0
564375.0 1078221.0 9191.0
558700.0 1076303.0 9072.0
565717.0 1078423.0 9111.0
565376.0 1078270.0 9207.0
564615.0 1078008.0 9226.0
559803.0 1076395.0 9044.0
565423.0 1077995.0 9169.0
563638.0 1077285.0 9220.0
563698.0 1077082.0 9207.0
560860.0 1076078.0 9150.0
560530.0 1075958.0 9225.0
560745.0 1075803.0 9082.0
562323.0 1076093.0 9131.0
562596.0 1075986.0 9105.0
562291.0 1075842.0 9083.0
561925.0 1075500.0 9130.0
561197.0 1075130.0 9187.0
559725.0 1074676.0 9097.0
563823.0 1075852.0 9060.0
562403.0 1075132.0 9074.0
564316.0 1075424.0 9210.0
558729.0 1073513.0 9064.0
562729.0 1074620.0 9173.0
559069.0 1073376.0 9181.0
561364.0 1073793.0 9180.0
565814.0 1074334.0 9048.0
558079.0 1071649.0 9177.0
557813.0 1071493.0 9190.0
557490.0 1071097.0 9160.0
557129.0 1070962.0 9116.0
556767.0 1070855.0 9129.0
557653.0 1070885.0 9074.0
558453.0 1070003.0 9236.0
558122.0 1069943.0 9143.0
562528.0 1070706.0 9042.0
562555.0 1070367.0 9211.0
558104.0 1068888.0 9151.0
557923.0 1068575.0 9052.0
559480.0 1068777.0 9186.0
558047.0 1068312.0 9162.0
562219.0 1069416.0 9226.0
560588.0 1066765.0 9084.0
560664.0 1066585.0 9143.0
556639.0 1070639.0 8850.0
557616.0 1071449.0 8986.0
557822.0 1070452.0 8975.0
559847.0 1080065.0 8959.0
557838.0 1069105.0 8877.0
558968.0 1074359.0 8889.0
557903.0 1068935.0 8920.0
560570.0 1080283.0 8932.0
560616.0 1080061.0 9030.0
560765.0 1079611.0 8966.0
560837.0 1079443.0 8991.0
561074.0 1079404.0 8962.0
561151.0 1078856.0 9037.0
560492.0 1074671.0 8870.0
561324.0 1078662.0 8879.0
560492.0 1073889.0 9004.0
560776.0 1074941.0 8848.0
562198.0 1078957.0 9022.0
561782.0 1075749.0 8864.0
562058.0 1077109.0 8888.0
559953.0 1067594.0 8893.0
562023.0 1076010.0 8900.0
562041.0 1075912.0 8854.0
560126.0 1067431.0 8928.0
560253.0 1067553.0 8946.0
562198.0 1075908.0 8995.0
562510.0 1076790.0 9009.0
560464.0 1067369.0 8901.0
563375.0 1079771.0 8852.0
562566.0 1076050.0 9008.0
562988.0 1077306.0 8876.0
563508.0 1079922.0 8947.0
563950.0 1080993.0 8924.0
562014.0 1070638.0 8955.0
563008.0 1074899.0 8844.0
563614.0 1077586.0 9020.0
563388.0 1075666.0 8925.0
561960.0 1069146.0 8875.0
564138.0 1078091.0 8877.0
563653.0 1075877.0 8970.0
562082.0 1068946.0 8905.0
563775.0 1076024.0 8963.0
564254.0 1078268.0 8940.0
564010.0 1074238.0 8896.0
564772.0 1077659.0 9011.0
564162.0 1074402.0 8862.0
564198.0 1074357.0 8877.0
564876.0 1077486.0 8877.0
564217.0 1074296.0 8869.0
564156.0 1073943.0 9000.0
564254.0 1073613.0 8843.0
564281.0 1073908.0 8972.0
564353.0 1073579.0 8903.0
565183.0 1075707.0 8998.0
566110.0 1074537.0 9034.0
560351.0 1066915.0 9021.0
560281.0 1067077.0 8954.0
560109.0 1067378.0 8942.0
559981.0 1067464.0 8939.0
565564.0 1073671.0 8845.0
565863.0 1074229.0 8980.0
565959.0 1074442.0 8931.0
565657.0 1074144.0 8993.0
562473.0 1070695.0 8868.0
565813.0 1074336.0 8963.0
562657.0 1070922.0 9033.0
565569.0 1074100.0 8990.0
562666.0 1070938.0 9013.0
565471.0 1073990.0 8978.0
566037.0 1074592.0 8891.0
561928.0 1070181.0 8981.0
562577.0 1070898.0 8968.0
565900.0 1074499.0 8853.0
561895.0 1070238.0 8956.0
562467.0 1070862.0 8936.0
565971.0 1074626.0 8888.0
562107.0 1070689.0 8859.0
564212.0 1073815.0 8987.0
564148.0 1074038.0 8994.0
564075.0 1074049.0 8970.0
563976.0 1074062.0 8932.0
565128.0 1075726.0 9015.0
563397.0 1074208.0 8975.0
557911.0 1068795.0 8970.0
563364.0 1074508.0 8865.0
564582.0 1076213.0 8926.0
563629.0 1075652.0 9006.0
562746.0 1074751.0 8921.0
562702.0 1074777.0 8901.0
564310.0 1076566.0 8906.0
557823.0 1069710.0 8841.0
562667.0 1074815.0 8935.0
563705.0 1075981.0 8911.0
564240.0 1076551.0 8922.0
562678.0 1074879.0 8911.0
563322.0 1075539.0 8842.0
563929.0 1076245.0 8938.0
562684.0 1075102.0 9008.0
563895.0 1076273.0 8933.0
564955.0 1077551.0 9037.0
562429.0 1075132.0 9011.0
562308.0 1075080.0 8986.0
558390.0 1071408.0 8926.0
561669.0 1074905.0 8892.0
563833.0 1077365.0 8905.0
564339.0 1077919.0 8995.0
562867.0 1076590.0 9000.0
564170.0 1077918.0 8865.0
561212.0 1075026.0 8909.0
561763.0 1075608.0 8935.0
563433.0 1077406.0 8996.0
564025.0 1077912.0 8936.0
560770.0 1074771.0 8917.0
561856.0 1075843.0 8857.0
563474.0 1077556.0 9000.0
560412.0 1074671.0 8941.0
565154.0 1079916.0 9018.0
565440.0 1080343.0 8980.0
558836.0 1073725.0 9033.0
562165.0 1077062.0 8854.0
561945.0 1077115.0 8932.0
564022.0 1079314.0 9036.0
558987.0 1074326.0 8919.0
562057.0 1077381.0 8838.0
563699.0 1080811.0 8916.0
561215.0 1079498.0 8888.0
560751.0 1079454.0 8984.0
560752.0 1079554.0 8899.0
559759.0 1079097.0 8873.0
560588.0 1080321.0 9010.0
559817.0 1080023.0 9017.0
558128.0 1080458.0 8851.0
557431.0 1081055.0 8887.0
565545.0 1078178.0 8966.0
564360.0 1080440.0 8953.0
564495.0 1080125.0 9014.0
563960.0 1080945.0 8885.0
565412.0 1075588.0 8994.0
565103.0 1075783.0 8926.0
563391.0 1080323.0 8850.0
563633.0 1079494.0 9028.0
564071.0 1077842.0 9034.0
564364.0 1076623.0 8948.0
564104.0 1076367.0 8962.0
563801.0 1076191.0 8987.0
563461.0 1076191.0 8910.0
563547.0 1075786.0 8883.0
564075.0 1073686.0 8873.0
563130.0 1076251.0 8863.0
563838.0 1073709.0 8959.0
562237.0 1078785.0 9006.0
563085.0 1074482.0 8953.0
561468.0 1079506.0 8842.0
562049.0 1077395.0 8927.0
562134.0 1076966.0 8853.0
562724.0 1074852.0 8954.0
561847.0 1076929.0 8867.0
562070.0 1076166.0 8986.0
560799.0 1079547.0 8884.0
560970.0 1079177.0 8934.0
561519.0 1077061.0 8909.0
561865.0 1075856.0 8982.0
560386.0 1080336.0 8843.0
560472.0 1079930.0 8854.0
562557.0 1070966.0 8964.0
562615.0 1070611.0 9002.0
560846.0 1075048.0 8865.0
561955.0 1069886.0 8956.0
560075.0 1076061.0 9004.0
561796.0 1069032.0 8845.0
559964.0 1075273.0 8863.0
561507.0 1069396.0 8845.0
557717.0 1080438.0 8843.0
558630.0 1074295.0 8898.0
558762.0 1073861.0 8976.0
560024.0 1068828.0 8954.0
560166.0 1067194.0 8883.0
560246.0 1066811.0 8911.0
559891.0 1067268.0 8903.0
557839.0 1070867.0 9016.0
558454.0 1068241.0 8960.0
557680.0 1070516.0 9026.0
560167.0 1081600.0 9022.0
557547.0 1080680.0 8946.0
560465.0 1080316.0 8987.0
560532.0 1080120.0 8920.0
564018.0 1080957.0 8964.0
563666.0 1080880.0 8846.0
563667.0 1080625.0 8871.0
562277.0 1079788.0 8868.0
561585.0 1079514.0 8983.0
561216.0 1079446.0 8902.0
565756.0 1080445.0 9022.0
565437.0 1080312.0 8985.0
561105.0 1078895.0 8988.0
562540.0 1078955.0 8947.0
562190.0 1078871.0 8993.0
561817.0 1078763.0 9002.0
562592.0 1078753.0 8905.0
563498.0 1077668.0 8938.0
562012.0 1077219.0 8913.0
561650.0 1077080.0 8956.0
565758.0 1078179.0 9025.0
563234.0 1077320.0 8886.0
562139.0 1076956.0 8911.0
561872.0 1076255.0 8954.0
561943.0 1076041.0 8885.0
563655.0 1076392.0 8899.0
563286.0 1076281.0 8851.0
564781.0 1076490.0 8961.0
564449.0 1076384.0 8966.0
563745.0 1076120.0 8989.0
562623.0 1075819.0 8855.0
560819.0 1075139.0 8886.0
560901.0 1074938.0 8908.0
563740.0 1075619.0 8922.0
563877.0 1075386.0 8898.0
564133.0 1075180.0 8941.0
563014.0 1074767.0 8881.0
560533.0 1073923.0 8947.0
563106.0 1074523.0 8912.0
566110.0 1074441.0 8982.0
564349.0 1073855.0 8907.0
564119.0 1073543.0 8888.0
558198.0 1071438.0 8926.0
556345.0 1070785.0 8862.0
557978.0 1071045.0 8978.0
557819.0 1070702.0 8968.0
557746.0 1070457.0 8896.0
562582.0 1070966.0 9029.0
562128.0 1070679.0 8840.0
562825.0 1070656.0 8980.0
561795.0 1069397.0 8896.0
559894.0 1068783.0 9021.0
558392.0 1068242.0 8924.0
561825.0 1069227.0 8875.0
560988.0 1066781.0 9004.0
558017.0 1080469.0 8645.0
557371.0 1068986.0 8638.0
557577.0 1070337.0 8795.0
557511.0 1069238.0 8695.0
557678.0 1070278.0 8824.0
557636.0 1069192.0 8755.0
557752.0 1069189.0 8816.0
558932.0 1074492.0 8747.0
559902.0 1079553.0 8816.0
560014.0 1079401.0 8752.0
558598.0 1071188.0 8789.0
560525.0 1080250.0 8754.0
560433.0 1079326.0 8731.0
558368.0 1068417.0 8749.0
560215.0 1075778.0 8666.0
562285.0 1079681.0 8776.0
559676.0 1067500.0 8643.0
561628.0 1076202.0 8682.0
561588.0 1075762.0 8698.0
561829.0 1076799.0 8703.0
562099.0 1076532.0 8759.0
562355.0 1077587.0 8699.0
562304.0 1077335.0 8810.0
562352.0 1077247.0 8831.0
563072.0 1079700.0 8679.0
562546.0 1077220.0 8745.0
563156.0 1079796.0 8776.0
563211.0 1079542.0 8784.0
563520.0 1080891.0 8673.0
562644.0 1076523.0 8810.0
563619.0 1080836.0 8817.0
563040.0 1075563.0 8653.0
561714.0 1069186.0 8808.0
564141.0 1078335.0 8806.0
563387.0 1074392.0 8805.0
561828.0 1067757.0 8653.0
563709.0 1074549.0 8704.0
564958.0 1080019.0 8819.0
564465.0 1073511.0 8837.0
565223.0 1073996.0 8716.0
565386.0 1074207.0 8792.0
565737.0 1074458.0 8773.0
565868.0 1074494.0 8828.0
562139.0 1067741.0 8725.0
561155.0 1067174.0 8791.0
561739.0 1067795.0 8641.0
562047.0 1068915.0 8726.0
561917.0 1069063.0 8831.0
561864.0 1069229.0 8824.0
560010.0 1067569.0 8709.0
564990.0 1073306.0 8648.0
565378.0 1073926.0 8690.0
565482.0 1074316.0 8787.0
561778.0 1070523.0 8720.0
561768.0 1070761.0 8663.0
564235.0 1074182.0 8810.0
557562.0 1067535.0 8650.0
563910.0 1075064.0 8802.0
558900.0 1070099.0 8666.0
563345.0 1074748.0 8730.0
557564.0 1068948.0 8744.0
563124.0 1074855.0 8818.0
557728.0 1069315.0 8793.0
563121.0 1075009.0 8793.0
557732.0 1069428.0 8789.0
557667.0 1069435.0 8759.0
557351.0 1069118.0 8649.0
558327.0 1070196.0 8782.0
557720.0 1069623.0 8755.0
557805.0 1069822.0 8795.0
563339.0 1075660.0 8821.0
563157.0 1075725.0 8663.0
560620.0 1073280.0 8784.0
558476.0 1071032.0 8723.0
564210.0 1077284.0 8742.0
562862.0 1075969.0 8645.0
562422.0 1076390.0 8809.0
564044.0 1078102.0 8809.0
563923.0 1078085.0 8707.0
565143.0 1079437.0 8697.0
556625.0 1070730.0 8786.0
561548.0 1075796.0 8793.0
562685.0 1076923.0 8717.0
563225.0 1077514.0 8657.0
564903.0 1079306.0 8797.0
556188.0 1070521.0 8767.0
560391.0 1074784.0 8797.0
562559.0 1076971.0 8738.0
563094.0 1077508.0 8645.0
564173.0 1078670.0 8751.0
556258.0 1070734.0 8772.0
560526.0 1075060.0 8680.0
562397.0 1076980.0 8712.0
564240.0 1078917.0 8648.0
564968.0 1079971.0 8811.0
562561.0 1077548.0 8650.0
564690.0 1079830.0 8775.0
561500.0 1076722.0 8694.0
564626.0 1079935.0 8693.0
560392.0 1075826.0 8823.0
561523.0 1076960.0 8721.0
563234.0 1079442.0 8717.0
563452.0 1080226.0 8797.0
562752.0 1079608.0 8711.0
563723.0 1081040.0 8761.0
563574.0 1081076.0 8758.0
559842.0 1079214.0 8759.0
558057.0 1080596.0 8739.0
566112.0 1074386.0 8691.0
564512.0 1079689.0 8688.0
564164.0 1080112.0 8817.0
565237.0 1075924.0 8775.0
563699.0 1080807.0 8808.0
563550.0 1080505.0 8706.0
563324.0 1079343.0 8834.0
564784.0 1073430.0 8685.0
564063.0 1075017.0 8796.0
563628.0 1075378.0 8798.0
563659.0 1074943.0 8699.0
562194.0 1079655.0 8755.0
562943.0 1076642.0 8708.0
563672.0 1074108.0 8794.0
561941.0 1079601.0 8783.0
562424.0 1077562.0 8670.0
562640.0 1076796.0 8721.0
562776.0 1076402.0 8798.0
562867.0 1076000.0 8768.0
561737.0 1079498.0 8836.0
562281.0 1077362.0 8813.0
562378.0 1076956.0 8797.0
562475.0 1076549.0 8782.0
562691.0 1075753.0 8814.0
562767.0 1075270.0 8649.0
562925.0 1074883.0 8729.0
563070.0 1074061.0 8653.0
562163.0 1076536.0 8702.0
562423.0 1075659.0 8723.0
562072.0 1075747.0 8763.0
561039.0 1078767.0 8744.0
559881.0 1079957.0 8793.0
561111.0 1074896.0 8786.0
562180.0 1071061.0 8770.0
562221.0 1070735.0 8785.0
561888.0 1070793.0 8709.0
562222.0 1069566.0 8747.0
560562.0 1074659.0 8815.0
560253.0 1074777.0 8700.0
561561.0 1069029.0 8689.0
561598.0 1067775.0 8671.0
559627.0 1074606.0 8684.0
561368.0 1067932.0 8776.0
560981.0 1067123.0 8787.0
560687.0 1067334.0 8740.0
560267.0 1067461.0 8644.0
558396.0 1071611.0 8754.0
558498.0 1071229.0 8761.0
558637.0 1070399.0 8650.0
558204.0 1071367.0 8798.0
558261.0 1070981.0 8707.0
557833.0 1070413.0 8771.0
557737.0 1069675.0 8674.0
558092.0 1068496.0 8829.0
557646.0 1069058.0 8785.0
557318.0 1069064.0 8719.0
557473.0 1068664.0 8722.0
555806.0 1070711.0 8653.0
560129.0 1081397.0 8785.0
558014.0 1080386.0 8712.0
560844.0 1079390.0 8807.0
563143.0 1079883.0 8732.0
562402.0 1079592.0 8760.0
562084.0 1079545.0 8757.0
563307.0 1079331.0 8751.0
559450.0 1076930.0 8639.0
564166.0 1078062.0 8762.0
562355.0 1077370.0 8787.0
562484.0 1077111.0 8766.0
561774.0 1076857.0 8822.0
561384.0 1076789.0 8653.0
562543.0 1076872.0 8752.0
562191.0 1076735.0 8756.0
562906.0 1076687.0 8695.0
562546.0 1076525.0 8790.0
562149.0 1076466.0 8714.0
560306.0 1075774.0 8748.0
565523.0 1077304.0 8803.0
563022.0 1076421.0 8796.0
562670.0 1076358.0 8809.0
560498.0 1075584.0 8774.0
564054.0 1076510.0 8804.0
562933.0 1076154.0 8810.0
561900.0 1075845.0 8725.0
562996.0 1075993.0 8681.0
562242.0 1075715.0 8672.0
562709.0 1075628.0 8667.0
560563.0 1074837.0 8793.0
560213.0 1074736.0 8739.0
558766.0 1074214.0 8763.0
562696.0 1075303.0 8737.0
565323.0 1075901.0 8786.0
565012.0 1075879.0 8717.0
560219.0 1074148.0 8797.0
564494.0 1075342.0 8736.0
563788.0 1075090.0 8815.0
563814.0 1074816.0 8741.0
563446.0 1074683.0 8742.0
563949.0 1074472.0 8827.0
563591.0 1074402.0 8735.0
565905.0 1074212.0 8700.0
555961.0 1070710.0 8711.0
558349.0 1071279.0 8648.0
556186.0 1070550.0 8687.0
558458.0 1071069.0 8716.0
557814.0 1070308.0 8653.0
557686.0 1069719.0 8674.0
562178.0 1070936.0 8761.0
561843.0 1070833.0 8708.0
557579.0 1069437.0 8685.0
557937.0 1069200.0 8717.0
557557.0 1069177.0 8692.0
557660.0 1068954.0 8664.0
557344.0 1068764.0 8792.0
557469.0 1068584.0 8670.0
561351.0 1069358.0 8717.0
562165.0 1069409.0 8753.0
561505.0 1069169.0 8701.0
558606.0 1068199.0 8726.0
562092.0 1068741.0 8835.0
560003.0 1067351.0 8687.0
560567.0 1067237.0 8765.0
560222.0 1067130.0 8753.0
560705.0 1066499.0 8818.0
555777.0 1070659.0 8606.0
558112.0 1080161.0 8580.0
557366.0 1068171.0 8471.0
557467.0 1067881.0 8464.0
557580.0 1067802.0 8468.0
559521.0 1076386.0 8469.0
557805.0 1067597.0 8443.0
558418.0 1069803.0 8441.0
558562.0 1069977.0 8475.0
560675.0 1079087.0 8595.0
560392.0 1075243.0 8486.0
559347.0 1069847.0 8551.0
559722.0 1067622.0 8601.0
560071.0 1066972.0 8610.0
562623.0 1077543.0 8621.0
563312.0 1080764.0 8557.0
562997.0 1077592.0 8568.0
561770.0 1070910.0 8545.0
562507.0 1073887.0 8489.0
563873.0 1078827.0 8503.0
564049.0 1078903.0 8512.0
561695.0 1067994.0 8439.0
564140.0 1078558.0 8519.0
564492.0 1079969.0 8469.0
561742.0 1067891.0 8630.0
563432.0 1074905.0 8536.0
564501.0 1079408.0 8505.0
564552.0 1079401.0 8507.0
562650.0 1071251.0 8634.0
564793.0 1080196.0 8543.0
563577.0 1074811.0 8608.0
564975.0 1080424.0 8462.0
565199.0 1074300.0 8606.0
560037.0 1066895.0 8590.0
561729.0 1069169.0 8531.0
565170.0 1073442.0 8623.0
565235.0 1073558.0 8631.0
565060.0 1073376.0 8616.0
565331.0 1073665.0 8539.0
559720.0 1067658.0 8499.0
564877.0 1073316.0 8584.0
559432.0 1067596.0 8568.0
561634.0 1069973.0 8471.0
564970.0 1073627.0 8549.0
565110.0 1074026.0 8473.0
565257.0 1074517.0 8574.0
561563.0 1070720.0 8616.0
561859.0 1071121.0 8499.0
564505.0 1074002.0 8495.0
565099.0 1074678.0 8454.0
557884.0 1067307.0 8515.0
557877.0 1067344.0 8486.0
557820.0 1067427.0 8485.0
563935.0 1074221.0 8493.0
557499.0 1068134.0 8491.0
559134.0 1069821.0 8439.0
558276.0 1069948.0 8593.0
563244.0 1075286.0 8568.0
562980.0 1075597.0 8616.0
562789.0 1075507.0 8574.0
564308.0 1077260.0 8636.0
563442.0 1076499.0 8544.0
562878.0 1076079.0 8561.0
563304.0 1077438.0 8568.0
563810.0 1078058.0 8574.0
561538.0 1075860.0 8619.0
563026.0 1077595.0 8558.0
555721.0 1070394.0 8537.0
560070.0 1074720.0 8635.0
560601.0 1075312.0 8493.0
562788.0 1077566.0 8584.0
563921.0 1078699.0 8487.0
564483.0 1079303.0 8515.0
555748.0 1070581.0 8582.0
560451.0 1075364.0 8597.0
561495.0 1076454.0 8609.0
563152.0 1078021.0 8447.0
555543.0 1070578.0 8533.0
558520.0 1073570.0 8524.0
560344.0 1075444.0 8549.0
565274.0 1080544.0 8530.0
559417.0 1074648.0 8516.0
564366.0 1079769.0 8560.0
564911.0 1080366.0 8472.0
560177.0 1075646.0 8513.0
563051.0 1079464.0 8588.0
562979.0 1079572.0 8522.0
559405.0 1076524.0 8604.0
563265.0 1080751.0 8530.0
558638.0 1076309.0 8479.0
560395.0 1079671.0 8603.0
560592.0 1080428.0 8610.0
564712.0 1080643.0 8465.0
564926.0 1079860.0 8599.0
565013.0 1079383.0 8498.0
564675.0 1079841.0 8574.0
564749.0 1079397.0 8471.0
564182.0 1079668.0 8515.0
564325.0 1079261.0 8548.0
564379.0 1078820.0 8472.0
565631.0 1074273.0 8584.0
563925.0 1079469.0 8452.0
564088.0 1079123.0 8515.0
565391.0 1074481.0 8637.0
565125.0 1074204.0 8518.0
564952.0 1073719.0 8512.0
565108.0 1073322.0 8599.0
563002.0 1077427.0 8611.0
563203.0 1076589.0 8544.0
562690.0 1077465.0 8588.0
562815.0 1077052.0 8634.0
563089.0 1075784.0 8479.0
563273.0 1075367.0 8620.0
563311.0 1074886.0 8508.0
562911.0 1075562.0 8587.0
562504.0 1073793.0 8588.0
561521.0 1076629.0 8558.0
560080.0 1080117.0 8607.0
561737.0 1071163.0 8486.0
561628.0 1070665.0 8629.0
559614.0 1076786.0 8468.0
560363.0 1073897.0 8568.0
562026.0 1067747.0 8583.0
559650.0 1076092.0 8518.0
561761.0 1067732.0 8533.0
561289.0 1069015.0 8500.0
561689.0 1067421.0 8622.0
560595.0 1069611.0 8502.0
560947.0 1068348.0 8503.0
561247.0 1067082.0 8520.0
558775.0 1074440.0 8624.0
558898.0 1070089.0 8452.0
557692.0 1068666.0 8630.0
557461.0 1068235.0 8492.0
557682.0 1067334.0 8524.0
558115.0 1080289.0 8520.0
563319.0 1080901.0 8439.0
559691.0 1079597.0 8552.0
560934.0 1079163.0 8530.0
564996.0 1080353.0 8509.0
564698.0 1080234.0 8492.0
565130.0 1080037.0 8505.0
564746.0 1079971.0 8438.0
564393.0 1079762.0 8613.0
564047.0 1079625.0 8570.0
564673.0 1079577.0 8596.0
563249.0 1079121.0 8562.0
564437.0 1079014.0 8473.0
564107.0 1078892.0 8489.0
559375.0 1076734.0 8578.0
562845.0 1077368.0 8516.0
559621.0 1076207.0 8534.0
562896.0 1076998.0 8620.0
561795.0 1076668.0 8454.0
561461.0 1076564.0 8467.0
559428.0 1075241.0 8625.0
559426.0 1074978.0 8504.0
560372.0 1075163.0 8521.0
558872.0 1074550.0 8592.0
563055.0 1075797.0 8539.0
562369.0 1075542.0 8557.0
563031.0 1075478.0 8596.0
563127.0 1075273.0 8572.0
562786.0 1075181.0 8563.0
563341.0 1075112.0 8493.0
562495.0 1074015.0 8597.0
562493.0 1073789.0 8545.0
565461.0 1074336.0 8629.0
555586.0 1070604.0 8591.0
555775.0 1070470.0 8461.0
565229.0 1073175.0 8594.0
558505.0 1070822.0 8615.0
557919.0 1069595.0 8587.0
561754.0 1070673.0 8613.0
558213.0 1069498.0 8441.0
558156.0 1068906.0 8439.0
561871.0 1069877.0 8510.0
560824.0 1069532.0 8474.0
557586.0 1068391.0 8532.0
557280.0 1068239.0 8594.0
558692.0 1068518.0 8491.0
557243.0 1067982.0 8630.0
558243.0 1068109.0 8631.0
561823.0 1069067.0 8478.0
559621.0 1067646.0 8452.0
561396.0 1067921.0 8595.0
561225.0 1067207.0 8623.0
560870.0 1067175.0 8521.0
560188.0 1066910.0 8526.0
557195.0 1068224.0 8411.0
557790.0 1067999.0 8343.0
559703.0 1076413.0 8351.0
560406.0 1079979.0 8425.0
559868.0 1076423.0 8266.0
558217.0 1067452.0 8305.0
558797.0 1069807.0 8315.0
559941.0 1074486.0 8373.0
560324.0 1073758.0 8336.0
559782.0 1067945.0 8273.0
559882.0 1067789.0 8277.0
561233.0 1073530.0 8273.0
562876.0 1079784.0 8318.0
560495.0 1068702.0 8239.0
560758.0 1069834.0 8253.0
562956.0 1079706.0 8409.0
563136.0 1080719.0 8377.0
563016.0 1079839.0 8330.0
560538.0 1068522.0 8433.0
560647.0 1068555.0 8296.0
560823.0 1068975.0 8290.0
560943.0 1068521.0 8344.0
561249.0 1068975.0 8263.0
561505.0 1069267.0 8278.0
562928.0 1075350.0 8404.0
561520.0 1068635.0 8328.0
564163.0 1079894.0 8273.0
564807.0 1080461.0 8349.0
564932.0 1080693.0 8266.0
562380.0 1068605.0 8426.0
562527.0 1068549.0 8387.0
564900.0 1075038.0 8242.0
565461.0 1077605.0 8432.0
564993.0 1075111.0 8322.0
564941.0 1074662.0 8353.0
565213.0 1075831.0 8351.0
564913.0 1074112.0 8326.0
565022.0 1074068.0 8349.0
566455.0 1078349.0 8268.0
565506.0 1073530.0 8359.0
565845.0 1074761.0 8240.0
562349.0 1068344.0 8414.0
561721.0 1068043.0 8333.0
561572.0 1068163.0 8347.0
561394.0 1068228.0 8351.0
560830.0 1067891.0 8308.0
560672.0 1067946.0 8306.0
561249.0 1068492.0 8312.0
565712.0 1073545.0 8328.0
561398.0 1068846.0 8262.0
560872.0 1068444.0 8350.0
561443.0 1069079.0 8338.0
565563.0 1073581.0 8358.0
560762.0 1068464.0 8412.0
561335.0 1069013.0 8290.0
558866.0 1066490.0 8280.0
560798.0 1068642.0 8345.0
560600.0 1068718.0 8279.0
559298.0 1067720.0 8421.0
560598.0 1069020.0 8289.0
565835.0 1074731.0 8278.0
559026.0 1067683.0 8352.0
561321.0 1070109.0 8333.0
564728.0 1073832.0 8322.0
558911.0 1067727.0 8335.0
564930.0 1074274.0 8349.0
558127.0 1067261.0 8406.0
564932.0 1074523.0 8370.0
558291.0 1067461.0 8274.0
558781.0 1068086.0 8374.0
564839.0 1074504.0 8339.0
566446.0 1076304.0 8413.0
566284.0 1076221.0 8303.0
560101.0 1069667.0 8396.0
565234.0 1075864.0 8356.0
558642.0 1069189.0 8250.0
558812.0 1069987.0 8326.0
566583.0 1078421.0 8287.0
558511.0 1069948.0 8357.0
565500.0 1077653.0 8426.0
563092.0 1075245.0 8307.0
563536.0 1075863.0 8348.0
560292.0 1073682.0 8245.0
563104.0 1076849.0 8391.0
559989.0 1074102.0 8279.0
563690.0 1078012.0 8375.0
563693.0 1078161.0 8288.0
564983.0 1079454.0 8341.0
565625.0 1080479.0 8359.0
559968.0 1074758.0 8394.0
563709.0 1078603.0 8365.0
565297.0 1080320.0 8313.0
563825.0 1079160.0 8380.0
558610.0 1073997.0 8345.0
561293.0 1076659.0 8250.0
563939.0 1079434.0 8349.0
564450.0 1080023.0 8426.0
565014.0 1080564.0 8420.0
558551.0 1073998.0 8292.0
563385.0 1079022.0 8358.0
563999.0 1079693.0 8355.0
564625.0 1080337.0 8336.0
565294.0 1080947.0 8268.0
559942.0 1075622.0 8258.0
563192.0 1079068.0 8431.0
559778.0 1076215.0 8352.0
559680.0 1076351.0 8356.0
559879.0 1076711.0 8353.0
562923.0 1079835.0 8340.0
559972.0 1077009.0 8393.0
563156.0 1080745.0 8389.0
562327.0 1080173.0 8292.0
557586.0 1080891.0 8363.0
565269.0 1080616.0 8430.0
565303.0 1080200.0 8364.0
564942.0 1080623.0 8369.0
565004.0 1080251.0 8376.0
564789.0 1080222.0 8376.0
566128.0 1073928.0 8274.0
564496.0 1079187.0 8374.0
565642.0 1073887.0 8260.0
565325.0 1074003.0 8299.0
563291.0 1080875.0 8398.0
563730.0 1079283.0 8437.0
565158.0 1073783.0 8365.0
563070.0 1080682.0 8270.0
564779.0 1074101.0 8283.0
563008.0 1079664.0 8382.0
564551.0 1073818.0 8382.0
562515.0 1080113.0 8250.0
563059.0 1076991.0 8426.0
561690.0 1076450.0 8339.0
560385.0 1080748.0 8334.0
561197.0 1076430.0 8418.0
561472.0 1074073.0 8421.0
559828.0 1079550.0 8392.0
560875.0 1075263.0 8308.0
562436.0 1068287.0 8410.0
561725.0 1068589.0 8345.0
562028.0 1067349.0 8263.0
560101.0 1073977.0 8307.0
561203.0 1069313.0 8270.0
561598.0 1068144.0 8249.0
561838.0 1067292.0 8288.0
561294.0 1068558.0 8312.0
561384.0 1068175.0 8293.0
557978.0 1080445.0 8340.0
560770.0 1069537.0 8277.0
560906.0 1069131.0 8308.0
561032.0 1068706.0 8357.0
561114.0 1068304.0 8341.0
558767.0 1076330.0 8290.0
560438.0 1069953.0 8339.0
560637.0 1069146.0 8314.0
560734.0 1068723.0 8321.0
558900.0 1074643.0 8319.0
560164.0 1069835.0 8329.0
560241.0 1069446.0 8263.0
558616.0 1074870.0 8388.0
558896.0 1073578.0 8313.0
559564.0 1067610.0 8379.0
558935.0 1067803.0 8307.0
558320.0 1069028.0 8336.0
558741.0 1067367.0 8238.0
558091.0 1069062.0 8424.0
558210.0 1067251.0 8254.0
557690.0 1068187.0 8334.0
557794.0 1067810.0 8382.0
557940.0 1067376.0 8393.0
557747.0 1080226.0 8345.0
558267.0 1080164.0 8245.0
560183.0 1080127.0 8421.0
560360.0 1079986.0 8395.0
563215.0 1080685.0 8254.0
565239.0 1081014.0 8312.0
565206.0 1080807.0 8302.0
564921.0 1080627.0 8413.0
562885.0 1079675.0 8347.0
565431.0 1080316.0 8290.0
562898.0 1079400.0 8300.0
564298.0 1079513.0 8405.0
563944.0 1079379.0 8430.0
563588.0 1079276.0 8357.0
564775.0 1079401.0 8421.0
565125.0 1079338.0 8258.0
564034.0 1078644.0 8409.0
563829.0 1078008.0 8417.0
563007.0 1077839.0 8247.0
558639.0 1076183.0 8399.0
559874.0 1076339.0 8417.0
561149.0 1076430.0 8421.0
559647.0 1075994.0 8270.0
564387.0 1077397.0 8266.0
559144.0 1075500.0 8428.0
561558.0 1076094.0 8372.0
560084.0 1075612.0 8302.0
558695.0 1074894.0 8296.0
563312.0 1076252.0 8289.0
566405.0 1076453.0 8397.0
565107.0 1075791.0 8362.0
560082.0 1074035.0 8265.0
560169.0 1073752.0 8251.0
565342.0 1075175.0 8266.0
565027.0 1075029.0 8286.0
561338.0 1073801.0 8319.0
565039.0 1074341.0 8321.0
565511.0 1074235.0 8242.0
565167.0 1074040.0 8383.0
564759.0 1073978.0 8282.0
565118.0 1073737.0 8390.0
561836.0 1072077.0 8357.0
558687.0 1070453.0 8283.0
558579.0 1069932.0 8247.0
562371.0 1070736.0 8357.0
559059.0 1069566.0 8275.0
558360.0 1069285.0 8348.0
558020.0 1069159.0 8373.0
558485.0 1069080.0 8248.0
560422.0 1069457.0 8295.0
560931.0 1069378.0 8287.0
560557.0 1069267.0 8270.0
557963.0 1068346.0 8256.0
557598.0 1068188.0 8398.0
561057.0 1069191.0 8241.0
560683.0 1069078.0 8255.0
558899.0 1068374.0 8379.0
557505.0 1067924.0 8369.0
560776.0 1068820.0 8301.0
561266.0 1068693.0 8252.0
560913.0 1068471.0 8418.0
559041.0 1067846.0 8311.0
557951.0 1067496.0 8337.0
561373.0 1068346.0 8318.0
561690.0 1068080.0 8335.0
561672.0 1067791.0 8370.0
560142.0 1067291.0 8245.0
561622.0 1067171.0 8383.0
557833.0 1080862.0 8220.0
557908.0 1080635.0 8097.0
558058.0 1080901.0 8197.0
558651.0 1074150.0 8191.0
558275.0 1067788.0 8097.0
558820.0 1070064.0 8233.0
558614.0 1068027.0 8148.0
559075.0 1070202.0 8231.0
558682.0 1067995.0 8182.0
558689.0 1067577.0 8179.0
558863.0 1067624.0 8139.0
559193.0 1067543.0 8146.0
560777.0 1073788.0 8120.0
561253.0 1075951.0 8073.0
559894.0 1068744.0 8053.0
562342.0 1080290.0 8234.0
560160.0 1069436.0 8229.0
562566.0 1080349.0 8158.0
560155.0 1068900.0 8139.0
562698.0 1080465.0 8183.0
559975.0 1067883.0 8223.0
560285.0 1069042.0 8170.0
562889.0 1080269.0 8129.0
560669.0 1069202.0 8231.0
561095.0 1069318.0 8140.0
561290.0 1069677.0 8192.0
562188.0 1069038.0 8102.0
562019.0 1068017.0 8180.0
564535.0 1077323.0 8131.0
565103.0 1077588.0 8060.0
564897.0 1075873.0 8096.0
564826.0 1075086.0 8174.0
564840.0 1074701.0 8223.0
565252.0 1076107.0 8084.0
566028.0 1073747.0 8192.0
561957.0 1067954.0 8058.0
560775.0 1068082.0 8139.0
559785.0 1067105.0 8043.0
560333.0 1067760.0 8136.0
560251.0 1067783.0 8184.0
561896.0 1069551.0 8085.0
560101.0 1067676.0 8185.0
560128.0 1067791.0 8201.0
560218.0 1067878.0 8158.0
561226.0 1069308.0 8057.0
559633.0 1068184.0 8132.0
560201.0 1068819.0 8170.0
560779.0 1069411.0 8152.0
559493.0 1068259.0 8122.0
560615.0 1069435.0 8127.0
558780.0 1067710.0 8211.0
559435.0 1068342.0 8068.0
560057.0 1069034.0 8127.0
563939.0 1073172.0 8041.0
558742.0 1067794.0 8210.0
559891.0 1068943.0 8062.0
559948.0 1069102.0 8077.0
562098.0 1071430.0 8113.0
558621.0 1067891.0 8193.0
563756.0 1073286.0 8044.0
564965.0 1074737.0 8230.0
558508.0 1067839.0 8184.0
561910.0 1071421.0 8105.0
564738.0 1074498.0 8171.0
558421.0 1067930.0 8189.0
561688.0 1071367.0 8105.0
565004.0 1074970.0 8222.0
566113.0 1076182.0 8201.0
558272.0 1068023.0 8214.0
561448.0 1071362.0 8136.0
564675.0 1074814.0 8137.0
565968.0 1076260.0 8198.0
557983.0 1068016.0 8180.0
563582.0 1073964.0 8131.0
565857.0 1076430.0 8135.0
563571.0 1074357.0 8196.0
566871.0 1077939.0 8056.0
563515.0 1074611.0 8170.0
566710.0 1078126.0 8153.0
563365.0 1074733.0 8191.0
564441.0 1076048.0 8079.0
565520.0 1077166.0 8040.0
563552.0 1075198.0 8051.0
564174.0 1075986.0 8198.0
563439.0 1075176.0 8157.0
566302.0 1078200.0 8042.0
565356.0 1077462.0 8213.0
565283.0 1077475.0 8070.0
563936.0 1076258.0 8053.0
565222.0 1077590.0 8043.0
564720.0 1077293.0 8085.0
563446.0 1075944.0 8147.0
563724.0 1076445.0 8096.0
563587.0 1076419.0 8096.0
564723.0 1077620.0 8048.0
560279.0 1073234.0 8186.0
564394.0 1077728.0 8170.0
560041.0 1073950.0 8226.0
563467.0 1078013.0 8072.0
559822.0 1074729.0 8207.0
561057.0 1075933.0 8187.0
560058.0 1075131.0 8066.0
559156.0 1074578.0 8180.0
563794.0 1079541.0 8190.0
564895.0 1080721.0 8235.0
563943.0 1079770.0 8042.0
564961.0 1080935.0 8144.0
562847.0 1080496.0 8215.0
563027.0 1080714.0 8091.0
562490.0 1080436.0 8189.0
562214.0 1080325.0 8183.0
562126.0 1080416.0 8204.0
562008.0 1080466.0 8195.0
560251.0 1079766.0 8197.0
557804.0 1080787.0 8148.0
558112.0 1081322.0 8080.0
556462.0 1080014.0 8055.0
566796.0 1078210.0 8105.0
565276.0 1081053.0 8116.0
565914.0 1076317.0 8106.0
565768.0 1076086.0 8226.0
565147.0 1077317.0 8070.0
565801.0 1074709.0 8046.0
564808.0 1077584.0 8041.0
564914.0 1077253.0 8081.0
565279.0 1075068.0 8204.0
565331.0 1074677.0 8070.0
565686.0 1073415.0 8075.0
564153.0 1078217.0 8125.0
564368.0 1077359.0 8069.0
565025.0 1074868.0 8135.0
565430.0 1073595.0 8232.0
564481.0 1076130.0 8067.0
564750.0 1074947.0 8142.0
564884.0 1074568.0 8209.0
563093.0 1080264.0 8105.0
563480.0 1079042.0 8119.0
564174.0 1076159.0 8045.0
564489.0 1074868.0 8089.0
564679.0 1074475.0 8209.0
562792.0 1080483.0 8209.0
562825.0 1080079.0 8158.0
563784.0 1076302.0 8053.0
564254.0 1074590.0 8117.0
564375.0 1074176.0 8133.0
562370.0 1080482.0 8164.0
563297.0 1076920.0 8199.0
564008.0 1074161.0 8108.0
562114.0 1080329.0 8220.0
562779.0 1077853.0 8216.0
563241.0 1075712.0 8092.0
563591.0 1074451.0 8232.0
563753.0 1074105.0 8111.0
563949.0 1073250.0 8088.0
560387.0 1080347.0 8227.0
561386.0 1076140.0 8133.0
562345.0 1071387.0 8048.0
562167.0 1071323.0 8105.0
561241.0 1073569.0 8175.0
560165.0 1076641.0 8183.0
560490.0 1075447.0 8224.0
561480.0 1070231.0 8046.0
561801.0 1069042.0 8060.0
561259.0 1070199.0 8164.0
561468.0 1069287.0 8149.0
561575.0 1068923.0 8151.0
561786.0 1068116.0 8064.0
559554.0 1075661.0 8146.0
559898.0 1074358.0 8203.0
