540000.0 1088469.0 10633.0
539192.0 1089568.0 10462.0
538617.0 1089557.0 10577.0
540619.0 1091225.0 10517.0
539821.0 1091859.0 10627.0
540718.0 1092492.0 10538.0
537155.0 1090145.0 10471.0
537488.0 1090920.0 10510.0
539404.0 1092408.0 10580.0
539189.0 1092524.0 10498.0
537520.0 1091822.0 10473.0
537390.0 1092077.0 10484.0
537415.0 1092347.0 10492.0
537351.0 1092507.0 10472.0
537704.0 1093069.0 10585.0
542135.0 1096522.0 10509.0
537421.0 1093961.0 10607.0
537343.0 1094041.0 10486.0
542001.0 1097571.0 10621.0
537122.0 1094536.0 10494.0
535698.0 1093832.0 10473.0
539593.0 1096764.0 10628.0
540054.0 1097022.0 10613.0
535667.0 1094122.0 10529.0
536472.0 1094752.0 10526.0
534034.0 1093803.0 10611.0
537020.0 1096299.0 10468.0
534914.0 1095334.0 10529.0
534789.0 1095415.0 10566.0
534514.0 1095410.0 10467.0
534160.0 1095573.0 10519.0
534548.0 1095827.0 10529.0
535208.0 1096819.0 10451.0
538579.0 1099563.0 10553.0
537003.0 1098739.0 10484.0
537832.0 1099323.0 10626.0
536739.0 1098755.0 10530.0
536750.0 1099233.0 10568.0
536829.0 1100255.0 10467.0
537932.0 1101480.0 10626.0
534755.0 1099706.0 10452.0
544297.0 1089166.0 10466.0
544116.0 1089276.0 10562.0
544197.0 1088860.0 10589.0
544002.0 1089073.0 10600.0
541123.0 1094991.0 10459.0
540853.0 1094051.0 10467.0
538387.0 1100828.0 10495.0
539045.0 1096771.0 10463.0
538805.0 1097055.0 10597.0
537898.0 1101420.0 10474.0
538347.0 1092176.0 10531.0
538051.0 1092255.0 10509.0
536559.0 1098520.0 10494.0
537322.0 1092269.0 10550.0
535089.0 1098342.0 10457.0
535584.0 1092974.0 10578.0
534863.0 1095266.0 10524.0
535115.0 1092303.0 10591.0
534318.0 1095863.0 10534.0
534530.0 1100982.0 10446.0
537816.0 1101663.0 10636.0
538053.0 1101591.0 10486.0
536458.0 1100558.0 10549.0
536868.0 1100515.0 10453.0
536149.0 1100106.0 10616.0
535181.0 1096847.0 10445.0
535354.0 1096734.0 10585.0
533899.0 1095938.0 10560.0
534239.0 1095913.0 10515.0
534871.0 1095469.0 10576.0
536742.0 1094881.0 10635.0
537199.0 1094942.0 10473.0
536851.0 1094781.0 10456.0
536454.0 1094612.0 10456.0
537338.0 1094466.0 10452.0
535690.0 1092992.0 10490.0
537427.0 1093483.0 10521.0
535174.0 1092421.0 10567.0
537514.0 1093297.0 10528.0
537750.0 1093105.0 10596.0
537609.0 1092416.0 10554.0
538188.0 1092257.0 10614.0
537422.0 1091097.0 10471.0
538267.0 1090922.0 10592.0
538483.0 1090863.0 10586.0
538759.0 1090574.0 10636.0
537221.0 1089988.0 10473.0
543323.0 1089272.0 10602.0
540874.0 1087605.0 10519.0
543699.0 1087403.0 10635.0
532907.0 1098103.0 10294.0
534395.0 1100482.0 10344.0
534452.0 1095347.0 10308.0
534588.0 1093352.0 10267.0
534682.0 1096564.0 10331.0
534781.0 1095240.0 10310.0
534872.0 1096604.0 10266.0
535011.0 1096628.0 10313.0
535082.0 1092253.0 10328.0
535505.0 1097454.0 10374.0
535758.0 1095221.0 10243.0
536565.0 1094561.0 10330.0
537306.0 1094076.0 10345.0
537466.0 1096731.0 10244.0
537396.0 1092702.0 10324.0
537516.0 1090995.0 10264.0
538187.0 1092114.0 10398.0
538551.0 1092144.0 10277.0
538952.0 1092478.0 10324.0
540086.0 1092082.0 10327.0
540257.0 1091271.0 10247.0
540223.0 1091994.0 10355.0
540407.0 1092131.0 10340.0
540788.0 1095075.0 10383.0
540854.0 1087656.0 10358.0
542199.0 1096800.0 10304.0
542317.0 1094425.0 10370.0
542614.0 1096958.0 10419.0
542911.0 1089677.0 10293.0
543366.0 1087933.0 10392.0
543383.0 1087766.0 10348.0
543196.0 1088578.0 10262.0
542964.0 1088924.0 10291.0
540767.0 1087329.0 10381.0
542911.0 1089120.0 10332.0
539493.0 1086839.0 10332.0
539093.0 1089227.0 10312.0
541917.0 1091406.0 10424.0
542099.0 1094526.0 10416.0
538292.0 1091877.0 10387.0
538739.0 1092213.0 10396.0
538947.0 1092481.0 10320.0
537376.0 1092690.0 10375.0
542551.0 1096819.0 10366.0
535148.0 1091685.0 10395.0
535071.0 1092270.0 10254.0
535361.0 1092672.0 10414.0
539778.0 1096183.0 10264.0
540188.0 1096497.0 10360.0
539988.0 1096562.0 10414.0
539202.0 1096398.0 10403.0
536970.0 1095856.0 10365.0
537065.0 1096069.0 10364.0
533951.0 1095560.0 10292.0
535374.0 1097466.0 10319.0
538131.0 1099707.0 10284.0
534697.0 1097545.0 10416.0
535968.0 1098368.0 10274.0
536376.0 1098698.0 10303.0
536817.0 1098998.0 10293.0
534672.0 1097649.0 10241.0
534290.0 1097636.0 10252.0
536973.0 1099552.0 10337.0
536785.0 1099926.0 10353.0
537184.0 1100223.0 10405.0
538176.0 1101102.0 10248.0
536689.0 1100285.0 10330.0
536368.0 1100261.0 10323.0
537614.0 1101146.0 10320.0
534529.0 1100231.0 10291.0
534644.0 1100998.0 10432.0
542445.0 1096922.0 10325.0
542229.0 1096898.0 10250.0
542064.0 1096538.0 10276.0
543200.0 1088584.0 10283.0
540970.0 1093939.0 10389.0
539883.0 1096449.0 10257.0
540839.0 1091202.0 10373.0
539671.0 1096443.0 10257.0
540784.0 1087469.0 10286.0
539136.0 1096328.0 10437.0
537724.0 1100226.0 10312.0
537032.0 1100282.0 10355.0
537138.0 1099372.0 10361.0
536775.0 1099953.0 10256.0
536592.0 1099770.0 10315.0
537611.0 1092946.0 10335.0
536294.0 1100348.0 10414.0
536948.0 1095791.0 10383.0
537477.0 1092653.0 10342.0
536029.0 1098243.0 10353.0
536172.0 1097289.0 10290.0
537299.0 1090337.0 10379.0
536378.0 1094465.0 10342.0
535308.0 1098163.0 10393.0
534550.0 1096595.0 10276.0
534015.0 1097347.0 10271.0
534046.0 1095633.0 10367.0
532795.0 1098109.0 10312.0
534106.0 1100513.0 10304.0
537690.0 1101193.0 10407.0
534933.0 1099619.0 10367.0
534638.0 1099459.0 10369.0
537202.0 1100433.0 10323.0
537232.0 1100202.0 10288.0
536452.0 1099830.0 10244.0
536750.0 1099732.0 10295.0
532852.0 1097943.0 10261.0
536834.0 1099520.0 10340.0
537988.0 1099527.0 10334.0
536105.0 1098521.0 10407.0
535326.0 1098195.0 10432.0
536227.0 1098248.0 10390.0
535129.0 1097774.0 10264.0
534172.0 1096942.0 10372.0
535693.0 1097402.0 10359.0
534992.0 1096979.0 10386.0
534570.0 1096609.0 10349.0
534118.0 1095607.0 10363.0
534496.0 1095391.0 10407.0
535001.0 1095249.0 10329.0
534668.0 1095150.0 10285.0
539516.0 1096520.0 10288.0
539187.0 1096358.0 10330.0
539880.0 1096465.0 10321.0
537104.0 1094657.0 10345.0
534496.0 1093514.0 10238.0
534576.0 1093304.0 10256.0
535897.0 1093337.0 10426.0
541577.0 1095419.0 10370.0
535505.0 1092690.0 10281.0
535242.0 1092319.0 10302.0
537983.0 1092543.0 10415.0
537808.0 1092220.0 10390.0
537408.0 1092093.0 10260.0
540790.0 1092249.0 10250.0
540250.0 1091336.0 10374.0
539961.0 1088500.0 10350.0
542778.0 1089390.0 10331.0
542904.0 1089186.0 10373.0
540029.0 1087369.0 10355.0
541474.0 1087378.0 10298.0
532761.0 1098020.0 10110.0
533962.0 1095490.0 10184.0
534117.0 1100492.0 10178.0
534237.0 1097759.0 10096.0
534358.0 1097683.0 10201.0
534755.0 1097850.0 10120.0
534786.0 1093720.0 10194.0
536690.0 1095990.0 10197.0
536910.0 1094220.0 10083.0
537186.0 1101926.0 10122.0
537095.0 1094053.0 10058.0
537219.0 1093441.0 10099.0
537212.0 1094154.0 10177.0
537302.0 1093414.0 10215.0
538266.0 1091485.0 10088.0
538823.0 1092671.0 10152.0
538860.0 1089442.0 10222.0
539187.0 1096235.0 10228.0
539352.0 1087869.0 10155.0
539777.0 1096096.0 10187.0
539618.0 1088134.0 10190.0
540108.0 1096479.0 10220.0
540007.0 1091516.0 10083.0
539852.0 1088028.0 10076.0
539926.0 1088686.0 10198.0
540108.0 1091398.0 10115.0
540693.0 1090932.0 10039.0
540861.0 1094446.0 10218.0
541248.0 1091605.0 10079.0
541666.0 1091287.0 10053.0
542923.0 1088865.0 10206.0
543162.0 1088468.0 10059.0
543505.0 1087365.0 10226.0
543573.0 1087221.0 10215.0
543243.0 1087724.0 10078.0
539182.0 1087563.0 10117.0
540015.0 1088529.0 10234.0
540786.0 1090923.0 10165.0
540248.0 1091143.0 10079.0
540762.0 1092034.0 10189.0
541023.0 1094311.0 10166.0
540954.0 1094793.0 10094.0
537383.0 1092903.0 10224.0
542239.0 1096777.0 10158.0
537263.0 1093380.0 10215.0
535504.0 1092594.0 10066.0
535012.0 1092317.0 10055.0
535577.0 1092936.0 10049.0
537187.0 1094167.0 10197.0
539540.0 1096222.0 10236.0
535751.0 1093736.0 10130.0
536651.0 1094396.0 10212.0
536144.0 1094358.0 10078.0
534881.0 1093718.0 10092.0
535812.0 1094906.0 10219.0
535758.0 1095016.0 10142.0
535732.0 1095224.0 10193.0
536632.0 1095920.0 10221.0
536897.0 1096296.0 10133.0
536508.0 1097295.0 10104.0
536166.0 1097379.0 10196.0
533910.0 1095987.0 10042.0
534782.0 1096645.0 10086.0
537328.0 1099216.0 10042.0
538155.0 1099898.0 10149.0
538548.0 1100177.0 10127.0
536377.0 1098836.0 10172.0
537228.0 1099405.0 10099.0
538072.0 1099963.0 10087.0
534771.0 1097875.0 10087.0
534446.0 1097904.0 10114.0
536616.0 1099431.0 10084.0
534288.0 1098024.0 10041.0
532964.0 1097991.0 10062.0
534368.0 1099645.0 10102.0
534480.0 1101011.0 10236.0
534210.0 1100996.0 10122.0
544302.0 1088691.0 10145.0
542826.0 1088367.0 10096.0
540896.0 1094341.0 10175.0
540319.0 1096279.0 10050.0
540360.0 1095843.0 10090.0
539979.0 1096023.0 10234.0
541459.0 1087370.0 10188.0
539757.0 1096056.0 10210.0
537950.0 1099960.0 10131.0
538819.0 1092479.0 10175.0
537094.0 1101002.0 10103.0
536590.0 1100441.0 10062.0
536736.0 1099479.0 10087.0
536651.0 1097147.0 10061.0
536974.0 1094853.0 10111.0
537349.0 1093078.0 10176.0
536728.0 1094548.0 10079.0
534717.0 1099226.0 10087.0
535708.0 1092859.0 10072.0
534501.0 1099738.0 10172.0
534556.0 1099226.0 10140.0
534870.0 1096769.0 10211.0
534493.0 1097786.0 10127.0
535314.0 1092383.0 10198.0
534328.0 1097518.0 10081.0
535151.0 1092046.0 10172.0
534714.0 1093710.0 10226.0
537642.0 1101592.0 10072.0
536107.0 1100766.0 10213.0
534772.0 1099895.0 10196.0
537614.0 1101012.0 10045.0
536799.0 1100299.0 10219.0
536797.0 1100031.0 10187.0
534466.0 1098701.0 10114.0
537930.0 1100047.0 10233.0
535673.0 1099057.0 10061.0
538018.0 1099964.0 10098.0
538339.0 1099737.0 10119.0
534714.0 1097623.0 10176.0
536110.0 1097931.0 10120.0
535298.0 1097520.0 10220.0
539427.0 1099246.0 10044.0
534899.0 1096875.0 10227.0
539570.0 1098991.0 10062.0
536364.0 1097496.0 10083.0
534740.0 1096728.0 10111.0
536471.0 1097397.0 10061.0
534914.0 1096641.0 10106.0
534037.0 1095314.0 10050.0
535738.0 1095328.0 10202.0
539489.0 1096142.0 10139.0
536050.0 1094548.0 10162.0
540453.0 1096302.0 10071.0
536692.0 1094539.0 10117.0
536296.0 1094373.0 10091.0
540063.0 1095850.0 10099.0
536904.0 1094402.0 10117.0
536512.0 1094257.0 10081.0
540138.0 1095648.0 10097.0
537112.0 1094245.0 10112.0
537367.0 1093055.0 10205.0
537809.0 1093028.0 10093.0
537509.0 1092868.0 10166.0
534807.0 1091659.0 10061.0
540763.0 1091991.0 10114.0
540028.0 1091643.0 10171.0
539842.0 1087918.0 10079.0
539519.0 1087752.0 10227.0
539493.0 1087496.0 10125.0
540890.0 1087472.0 10066.0
543470.0 1087219.0 10229.0
533287.0 1097710.0 9908.0
533652.0 1097784.0 9846.0
533722.0 1095862.0 9940.0
533894.0 1098157.0 9853.0
533927.0 1098764.0 9863.0
533983.0 1097817.0 9939.0
534022.0 1098519.0 9867.0
534304.0 1098393.0 9957.0
534357.0 1093432.0 9936.0
534531.0 1093197.0 10000.0
534640.0 1096802.0 9859.0
535535.0 1092423.0 9866.0
535579.0 1093867.0 9891.0
535981.0 1098873.0 9984.0
535998.0 1093107.0 9970.0
536096.0 1094396.0 10002.0
537126.0 1093332.0 9931.0
537442.0 1092147.0 9878.0
537362.0 1092768.0 10020.0
538544.0 1092204.0 9867.0
539666.0 1098669.0 9909.0
539628.0 1099385.0 10020.0
540595.0 1095001.0 9870.0
540606.0 1095776.0 9936.0
540241.0 1087355.0 9960.0
540744.0 1096101.0 10015.0
540610.0 1087615.0 10015.0
541146.0 1094630.0 9927.0
541320.0 1094602.0 9845.0
542962.0 1088017.0 9861.0
543864.0 1088861.0 9950.0
543469.0 1087078.0 10036.0
542866.0 1088151.0 9905.0
542754.0 1088321.0 9871.0
542721.0 1089200.0 9983.0
539864.0 1087374.0 9840.0
542610.0 1089668.0 9838.0
539643.0 1087909.0 9968.0
539078.0 1089428.0 9906.0
540677.0 1090877.0 9998.0
539958.0 1091340.0 9946.0
538553.0 1092030.0 9853.0
538679.0 1092197.0 9856.0
541335.0 1094228.0 9841.0
541530.0 1094583.0 10026.0
541174.0 1094444.0 9929.0
541592.0 1094795.0 9973.0
540724.0 1094808.0 9974.0
540507.0 1094816.0 9865.0
540513.0 1095064.0 9956.0
542738.0 1097062.0 9956.0
542513.0 1097153.0 10030.0
537129.0 1093475.0 10005.0
537121.0 1093775.0 9874.0
535455.0 1093026.0 9895.0
536795.0 1094087.0 9967.0
535815.0 1094788.0 9973.0
539640.0 1098684.0 9924.0
535412.0 1095784.0 9932.0
539620.0 1098921.0 10021.0
539592.0 1099087.0 10028.0
539435.0 1099114.0 10021.0
533640.0 1095162.0 9890.0
539461.0 1099645.0 9933.0
533565.0 1095725.0 9912.0
538707.0 1099967.0 9973.0
535255.0 1097677.0 9852.0
538020.0 1100085.0 9908.0
532813.0 1096714.0 9971.0
535809.0 1098780.0 10029.0
532675.0 1096871.0 9914.0
533910.0 1097662.0 9847.0
536443.0 1099529.0 10000.0
534135.0 1098114.0 9968.0
534584.0 1098428.0 9964.0
536430.0 1099757.0 10026.0
533375.0 1097771.0 9878.0
533833.0 1098070.0 9891.0
534241.0 1098395.0 9956.0
534684.0 1098654.0 9840.0
535529.0 1099265.0 10036.0
533090.0 1097838.0 9990.0
533962.0 1098350.0 9863.0
534371.0 1098643.0 9923.0
540951.0 1094518.0 9879.0
541277.0 1091480.0 9952.0
539696.0 1099383.0 9991.0
539804.0 1099011.0 10017.0
539578.0 1099343.0 10002.0
539640.0 1098850.0 9983.0
539031.0 1099656.0 9841.0
538559.0 1099943.0 9886.0
538392.0 1099897.0 9978.0
538043.0 1100386.0 9921.0
538169.0 1099961.0 10009.0
535995.0 1098997.0 10022.0
536292.0 1097516.0 10010.0
536745.0 1094085.0 9924.0
535754.0 1099160.0 9978.0
536037.0 1094236.0 9851.0
535257.0 1097556.0 9920.0
535956.0 1093135.0 10010.0
535469.0 1092440.0 10001.0
534548.0 1096778.0 9990.0
535255.0 1091912.0 9897.0
534207.0 1098418.0 10020.0
534261.0 1097959.0 10029.0
534049.0 1097653.0 9948.0
533660.0 1097510.0 9959.0
533233.0 1097857.0 9900.0
532961.0 1097747.0 9955.0
532719.0 1097690.0 9928.0
532844.0 1096759.0 10028.0
534577.0 1100147.0 10014.0
536413.0 1100479.0 9984.0
536335.0 1099637.0 9965.0
536380.0 1099534.0 9919.0
534469.0 1098576.0 10002.0
534112.0 1098412.0 9917.0
533348.0 1098020.0 10028.0
532999.0 1097840.0 10035.0
533959.0 1098116.0 9855.0
536724.0 1099077.0 9910.0
534107.0 1097772.0 9977.0
533713.0 1097623.0 9893.0
534243.0 1097514.0 9960.0
532769.0 1096798.0 9951.0
534429.0 1096998.0 9856.0
539707.0 1099206.0 10035.0
537538.0 1098091.0 9974.0
537577.0 1097965.0 9924.0
534520.0 1096529.0 9934.0
536743.0 1097350.0 9979.0
535151.0 1095913.0 9861.0
533640.0 1095189.0 9964.0
536827.0 1096251.0 10013.0
535618.0 1095105.0 10001.0
535587.0 1094020.0 10028.0
536724.0 1094134.0 9970.0
535182.0 1093490.0 9848.0
536948.0 1093989.0 9937.0
535148.0 1093151.0 10023.0
536060.0 1093291.0 10031.0
536183.0 1093212.0 9896.0
535860.0 1092967.0 9926.0
535585.0 1092591.0 10017.0
535286.0 1092230.0 9850.0
535168.0 1091865.0 9979.0
538463.0 1092648.0 9974.0
539149.0 1091928.0 9871.0
539631.0 1091597.0 9907.0
540538.0 1091038.0 9932.0
539028.0 1089663.0 10022.0
543256.0 1088293.0 9923.0
532650.0 1097764.0 9666.0
532852.0 1097377.0 9752.0
533074.0 1096667.0 9786.0
533123.0 1097364.0 9737.0
533542.0 1097989.0 9795.0
533665.0 1095055.0 9750.0
533731.0 1098458.0 9739.0
533709.0 1095126.0 9804.0
533789.0 1098001.0 9781.0
533833.0 1098673.0 9791.0
533891.0 1097562.0 9830.0
534489.0 1100263.0 9669.0
534548.0 1093883.0 9824.0
535060.0 1095939.0 9731.0
535403.0 1093545.0 9687.0
535625.0 1093160.0 9675.0
535770.0 1098850.0 9823.0
536495.0 1094266.0 9650.0
536988.0 1093570.0 9823.0
537617.0 1092679.0 9745.0
537821.0 1097092.0 9694.0
537934.0 1097102.0 9755.0
538106.0 1091251.0 9822.0
538219.0 1091991.0 9713.0
538464.0 1092809.0 9792.0
539489.0 1098412.0 9692.0
539419.0 1091734.0 9674.0
540180.0 1095005.0 9678.0
540333.0 1094612.0 9698.0
540393.0 1095392.0 9657.0
540439.0 1094807.0 9826.0
540504.0 1095475.0 9713.0
540155.0 1087323.0 9718.0
540654.0 1096481.0 9783.0
540538.0 1090610.0 9745.0
540855.0 1095306.0 9766.0
540925.0 1090758.0 9813.0
541233.0 1091471.0 9781.0
541415.0 1094292.0 9763.0
541543.0 1094965.0 9645.0
541438.0 1095632.0 9771.0
541803.0 1095883.0 9719.0
542488.0 1097522.0 9645.0
542557.0 1097290.0 9683.0
542739.0 1097434.0 9713.0
543196.0 1087733.0 9781.0
542563.0 1088750.0 9737.0
539267.0 1087723.0 9725.0
539712.0 1088064.0 9767.0
540392.0 1090611.0 9656.0
540383.0 1090888.0 9826.0
539575.0 1091583.0 9743.0
536498.0 1089954.0 9649.0
541410.0 1094104.0 9784.0
538540.0 1092254.0 9796.0
538390.0 1092275.0 9718.0
538424.0 1092502.0 9772.0
541450.0 1094817.0 9791.0
541456.0 1095030.0 9735.0
540934.0 1095357.0 9810.0
537162.0 1092802.0 9745.0
539994.0 1094870.0 9668.0
540427.0 1095224.0 9739.0
536949.0 1092932.0 9663.0
539972.0 1095115.0 9694.0
540382.0 1095453.0 9644.0
539373.0 1094937.0 9679.0
536980.0 1093437.0 9741.0
535876.0 1092846.0 9783.0
536780.0 1093489.0 9728.0
536870.0 1093755.0 9749.0
535414.0 1093317.0 9807.0
535375.0 1093648.0 9817.0
535411.0 1093890.0 9699.0
534649.0 1093832.0 9685.0
539695.0 1098414.0 9773.0
535371.0 1095485.0 9791.0
535120.0 1095901.0 9782.0
539523.0 1099351.0 9822.0
536160.0 1097491.0 9799.0
537469.0 1098369.0 9674.0
533825.0 1096099.0 9749.0
534606.0 1096642.0 9770.0
535235.0 1097810.0 9706.0
538561.0 1100219.0 9729.0
533656.0 1097236.0 9693.0
533509.0 1097386.0 9725.0
535664.0 1098801.0 9675.0
532824.0 1097144.0 9814.0
533278.0 1097442.0 9777.0
532593.0 1097119.0 9640.0
532974.0 1097443.0 9789.0
532730.0 1097429.0 9713.0
532612.0 1097562.0 9659.0
533889.0 1098515.0 9816.0
534597.0 1100338.0 9833.0
542647.0 1097141.0 9754.0
543382.0 1086748.0 9777.0
542725.0 1087873.0 9654.0
540548.0 1095292.0 9746.0
540666.0 1094817.0 9786.0
539773.0 1098546.0 9737.0
540429.0 1094968.0 9777.0
539391.0 1099795.0 9733.0
539648.0 1098345.0 9774.0
539533.0 1094888.0 9692.0
540299.0 1090702.0 9734.0
539267.0 1095069.0 9694.0
538048.0 1101241.0 9729.0
538243.0 1100333.0 9784.0
537719.0 1101823.0 9718.0
537545.0 1101834.0 9779.0
538394.0 1092750.0 9694.0
538522.0 1092310.0 9778.0
538213.0 1092586.0 9717.0
538273.0 1092141.0 9654.0
537970.0 1092508.0 9687.0
536015.0 1100776.0 9738.0
535710.0 1098737.0 9789.0
535192.0 1095548.0 9638.0
535302.0 1094630.0 9657.0
535664.0 1092388.0 9772.0
534414.0 1098745.0 9829.0
535442.0 1091933.0 9683.0
533912.0 1098151.0 9806.0
533633.0 1098374.0 9720.0
533735.0 1097861.0 9793.0
533427.0 1098362.0 9772.0
533471.0 1097901.0 9688.0
532717.0 1097250.0 9747.0
533583.0 1098460.0 9707.0
533726.0 1098275.0 9773.0
532561.0 1097712.0 9755.0
538356.0 1100273.0 9699.0
533550.0 1097963.0 9751.0
532715.0 1097544.0 9787.0
538970.0 1100177.0 9640.0
538660.0 1100004.0 9800.0
533272.0 1097500.0 9730.0
532886.0 1097328.0 9690.0
539147.0 1099788.0 9805.0
537097.0 1098322.0 9662.0
537200.0 1097866.0 9700.0
534810.0 1096471.0 9827.0
534473.0 1096336.0 9787.0
537199.0 1097326.0 9738.0
539654.0 1098088.0 9718.0
535241.0 1095611.0 9739.0
535631.0 1094935.0 9818.0
535190.0 1094350.0 9642.0
535875.0 1094310.0 9794.0
535238.0 1093714.0 9802.0
536823.0 1093750.0 9765.0
540407.0 1095140.0 9744.0
536940.0 1093570.0 9797.0
537047.0 1093348.0 9832.0
535916.0 1092841.0 9811.0
535653.0 1092449.0 9833.0
541163.0 1094690.0 9792.0
535506.0 1092127.0 9642.0
538530.0 1092426.0 9710.0
537861.0 1092102.0 9697.0
538569.0 1092164.0 9699.0
538195.0 1091990.0 9689.0
540327.0 1090788.0 9738.0
539778.0 1087791.0 9730.0
542856.0 1088166.0 9804.0
541019.0 1087404.0 9655.0
543231.0 1087564.0 9737.0
532477.0 1097181.0 9464.0
532501.0 1097869.0 9460.0
533608.0 1096152.0 9613.0
534129.0 1097134.0 9489.0
534389.0 1096448.0 9583.0
534556.0 1096273.0 9551.0
535037.0 1092257.0 9463.0
535492.0 1094800.0 9480.0
535593.0 1098705.0 9507.0
535848.0 1092233.0 9597.0
535974.0 1094427.0 9506.0
536173.0 1092473.0 9470.0
536330.0 1089922.0 9627.0
536527.0 1092840.0 9452.0
537038.0 1092879.0 9509.0
537245.0 1092644.0 9588.0
537274.0 1090400.0 9549.0
537566.0 1097173.0 9606.0
537721.0 1097383.0 9584.0
537840.0 1092514.0 9520.0
537925.0 1092098.0 9575.0
538360.0 1092730.0 9449.0
539224.0 1091734.0 9494.0
539245.0 1087794.0 9604.0
539731.0 1091288.0 9547.0
539941.0 1094708.0 9557.0
540345.0 1097973.0 9500.0
539963.0 1088309.0 9544.0
540083.0 1087313.0 9481.0
541981.0 1096687.0 9504.0
542565.0 1088810.0 9624.0
542824.0 1087956.0 9591.0
540472.0 1090433.0 9632.0
540312.0 1090333.0 9524.0
536364.0 1090001.0 9573.0
537986.0 1092115.0 9597.0
538056.0 1092385.0 9552.0
540241.0 1094009.0 9533.0
537518.0 1092214.0 9551.0
537990.0 1092568.0 9533.0
540293.0 1094307.0 9587.0
540127.0 1094650.0 9624.0
541876.0 1095899.0 9439.0
535619.0 1091899.0 9445.0
536008.0 1092268.0 9573.0
535976.0 1092418.0 9618.0
536394.0 1092711.0 9493.0
539819.0 1095212.0 9477.0
540209.0 1095540.0 9512.0
536112.0 1092740.0 9617.0
539037.0 1094978.0 9498.0
534500.0 1093873.0 9602.0
535016.0 1094418.0 9438.0
535478.0 1094819.0 9594.0
537571.0 1097041.0 9636.0
533909.0 1094978.0 9534.0
534935.0 1095879.0 9490.0
534504.0 1096177.0 9452.0
538549.0 1100349.0 9627.0
537790.0 1100278.0 9504.0
538238.0 1100572.0 9536.0
533815.0 1097640.0 9591.0
535608.0 1098938.0 9510.0
537905.0 1100573.0 9499.0
533500.0 1098155.0 9613.0
532020.0 1097390.0 9602.0
532428.0 1097682.0 9518.0
533640.0 1098586.0 9591.0
531999.0 1097696.0 9472.0
533257.0 1098605.0 9464.0
534300.0 1099729.0 9611.0
542816.0 1097021.0 9491.0
540363.0 1094477.0 9497.0
539648.0 1097880.0 9568.0
540224.0 1094535.0 9567.0
539858.0 1095016.0 9520.0
538895.0 1100102.0 9628.0
539214.0 1098230.0 9619.0
539690.0 1094622.0 9485.0
538674.0 1100166.0 9632.0
539362.0 1095786.0 9503.0
539287.0 1091768.0 9618.0
537692.0 1098360.0 9515.0
537653.0 1097159.0 9538.0
537181.0 1098534.0 9546.0
537024.0 1098397.0 9598.0
536330.0 1100870.0 9526.0
537804.0 1091790.0 9579.0
536515.0 1096634.0 9516.0
536722.0 1093596.0 9587.0
536305.0 1093057.0 9606.0
536123.0 1092758.0 9554.0
535898.0 1092158.0 9481.0
536296.0 1089711.0 9478.0
535419.0 1093744.0 9573.0
535657.0 1091940.0 9586.0
535058.0 1094375.0 9606.0
534485.0 1096277.0 9576.0
534369.0 1096076.0 9580.0
533709.0 1097333.0 9460.0
537537.0 1101756.0 9502.0
537862.0 1101639.0 9509.0
536316.0 1100860.0 9636.0
533324.0 1098845.0 9548.0
538167.0 1100766.0 9438.0
538255.0 1100482.0 9629.0
532175.0 1097624.0 9611.0
533808.0 1097456.0 9501.0
533452.0 1097289.0 9558.0
533080.0 1097109.0 9517.0
536627.0 1096749.0 9440.0
540051.0 1097652.0 9451.0
535264.0 1095373.0 9583.0
538402.0 1095249.0 9594.0
538144.0 1094931.0 9480.0
535486.0 1093707.0 9567.0
536465.0 1093958.0 9440.0
536291.0 1093069.0 9614.0
536423.0 1092949.0 9450.0
536060.0 1092707.0 9593.0
540390.0 1094453.0 9487.0
535845.0 1092332.0 9616.0
535555.0 1091864.0 9618.0
537628.0 1092500.0 9480.0
535662.0 1091620.0 9506.0
537783.0 1091862.0 9484.0
538476.0 1091935.0 9555.0
538071.0 1091799.0 9496.0
538332.0 1091720.0 9479.0
539185.0 1091794.0 9553.0
536315.0 1089695.0 9470.0
540931.0 1090729.0 9490.0
542479.0 1089871.0 9508.0
539836.0 1088456.0 9538.0
542677.0 1087862.0 9545.0
543365.0 1087430.0 9561.0
543413.0 1086853.0 9490.0
532149.0 1097166.0 9414.0
532990.0 1096795.0 9422.0
533488.0 1096995.0 9368.0
534042.0 1095065.0 9313.0
534139.0 1095043.0 9284.0
534312.0 1094778.0 9294.0
534300.0 1096882.0 9271.0
534815.0 1091442.0 9416.0
535102.0 1094470.0 9406.0
535160.0 1095185.0 9320.0
535309.0 1095134.0 9398.0
536615.0 1093578.0 9323.0
536831.0 1093023.0 9419.0
537061.0 1097473.0 9279.0
537007.0 1090288.0 9319.0
537313.0 1097443.0 9377.0
537733.0 1091989.0 9389.0
537971.0 1091419.0 9373.0
538065.0 1092770.0 9299.0
538997.0 1091976.0 9409.0
539370.0 1098049.0 9312.0
539827.0 1097911.0 9395.0
539581.0 1087235.0 9418.0
539966.0 1094051.0 9401.0
540172.0 1097403.0 9259.0
540198.0 1098064.0 9327.0
540000.0 1087484.0 9333.0
541073.0 1096815.0 9268.0
540713.0 1087387.0 9264.0
541300.0 1096453.0 9356.0
542504.0 1088895.0 9304.0
542526.0 1089720.0 9329.0
543306.0 1087007.0 9246.0
543139.0 1087483.0 9306.0
539866.0 1088591.0 9272.0
542925.0 1091215.0 9249.0
538816.0 1091160.0 9257.0
539233.0 1091441.0 9355.0
539162.0 1091631.0 9383.0
536999.0 1090229.0 9344.0
536846.0 1090264.0 9306.0
537261.0 1090524.0 9282.0
538990.0 1091850.0 9304.0
537951.0 1091460.0 9407.0
541697.0 1094367.0 9270.0
539827.0 1093389.0 9391.0
540222.0 1093665.0 9343.0
539868.0 1093656.0 9372.0
541965.0 1095256.0 9354.0
539903.0 1093913.0 9357.0
539791.0 1094317.0 9408.0
539570.0 1094749.0 9423.0
541731.0 1096364.0 9425.0
534716.0 1091381.0 9298.0
536823.0 1092956.0 9408.0
536622.0 1093018.0 9376.0
539461.0 1095039.0 9241.0
536408.0 1093022.0 9292.0
539906.0 1095595.0 9332.0
540793.0 1096283.0 9309.0
534487.0 1091705.0 9238.0
535492.0 1093486.0 9374.0
535307.0 1093897.0 9309.0
540044.0 1097381.0 9310.0
540412.0 1097723.0 9391.0
534898.0 1094514.0 9357.0
535304.0 1094832.0 9391.0
535169.0 1094917.0 9312.0
534749.0 1095012.0 9301.0
534244.0 1094888.0 9368.0
536512.0 1096558.0 9385.0
536985.0 1096880.0 9393.0
536145.0 1096393.0 9326.0
536585.0 1096709.0 9315.0
536839.0 1097444.0 9248.0
536035.0 1097466.0 9251.0
536448.0 1097738.0 9378.0
537669.0 1098607.0 9257.0
533188.0 1096927.0 9411.0
536555.0 1099938.0 9286.0
532183.0 1097131.0 9362.0
533041.0 1098980.0 9311.0
534593.0 1100351.0 9422.0
542074.0 1094270.0 9278.0
540215.0 1097736.0 9305.0
540027.0 1097705.0 9385.0
540577.0 1094309.0 9370.0
539740.0 1095488.0 9380.0
539200.0 1097791.0 9340.0
539554.0 1095511.0 9365.0
537742.0 1097905.0 9435.0
538160.0 1094758.0 9244.0
537990.0 1094694.0 9330.0
536850.0 1097031.0 9323.0
536680.0 1096809.0 9388.0
536031.0 1099360.0 9316.0
536966.0 1093044.0 9243.0
536710.0 1093136.0 9413.0
536881.0 1090273.0 9255.0
536292.0 1092604.0 9375.0
536110.0 1092308.0 9380.0
536473.0 1090275.0 9346.0
534411.0 1099636.0 9313.0
534888.0 1095928.0 9266.0
535751.0 1091455.0 9277.0
534616.0 1096214.0 9403.0
534748.0 1095809.0 9289.0
534382.0 1095150.0 9272.0
534951.0 1090302.0 9428.0
535016.0 1089853.0 9388.0
534798.0 1089862.0 9362.0
533177.0 1098820.0 9424.0
533443.0 1097009.0 9370.0
534585.0 1089639.0 9409.0
533560.0 1090774.0 9409.0
534408.0 1099825.0 9267.0
532925.0 1099014.0 9304.0
536678.0 1099888.0 9286.0
535546.0 1098697.0 9316.0
532451.0 1097265.0 9313.0
533974.0 1097298.0 9258.0
533592.0 1097105.0 9330.0
536019.0 1097476.0 9375.0
534728.0 1095924.0 9323.0
534155.0 1095223.0 9352.0
533775.0 1095018.0 9436.0
540018.0 1097413.0 9288.0
535259.0 1094941.0 9350.0
535337.0 1094812.0 9260.0
535506.0 1094609.0 9361.0
535971.0 1094266.0 9375.0
538484.0 1095170.0 9282.0
536177.0 1094125.0 9325.0
536514.0 1093570.0 9276.0
536804.0 1093158.0 9376.0
536220.0 1092573.0 9371.0
541853.0 1094827.0 9287.0
536398.0 1090269.0 9359.0
539358.0 1091372.0 9288.0
536367.0 1089961.0 9406.0
541366.0 1090738.0 9246.0
539504.0 1086939.0 9287.0
532836.0 1097023.0 9093.0
533359.0 1098042.0 9051.0
533856.0 1090731.0 9115.0
534382.0 1098329.0 9228.0
534427.0 1091236.0 9087.0
534484.0 1095159.0 9217.0
534549.0 1091244.0 9090.0
534875.0 1095369.0 9153.0
535022.0 1095308.0 9200.0
535016.0 1090862.0 9193.0
535178.0 1089958.0 9083.0
535218.0 1090693.0 9116.0
535450.0 1090259.0 9094.0
535685.0 1094170.0 9053.0
535897.0 1096084.0 9113.0
536220.0 1090419.0 9177.0
536372.0 1093701.0 9110.0
536526.0 1090573.0 9137.0
537629.0 1097695.0 9041.0
538810.0 1094835.0 9171.0
538940.0 1091355.0 9117.0
539050.0 1091332.0 9176.0
539323.0 1090929.0 9222.0
539557.0 1095429.0 9126.0
539647.0 1096951.0 9093.0
539677.0 1097677.0 9084.0
539721.0 1094071.0 9167.0
539887.0 1097137.0 9167.0
539754.0 1088572.0 9173.0
540444.0 1097237.0 9213.0
540668.0 1096929.0 9097.0
540780.0 1096811.0 9138.0
541392.0 1090779.0 9228.0
541507.0 1090797.0 9221.0
541819.0 1094561.0 9164.0
542417.0 1089600.0 9229.0
543264.0 1087999.0 9082.0
540681.0 1087228.0 9120.0
540036.0 1087172.0 9134.0
540023.0 1087326.0 9065.0
539270.0 1091114.0 9140.0
542036.0 1093778.0 9157.0
538867.0 1091465.0 9060.0
536848.0 1090394.0 9166.0
537328.0 1090702.0 9115.0
542029.0 1094315.0 9133.0
536681.0 1090423.0 9219.0
541914.0 1094383.0 9135.0
536550.0 1090478.0 9184.0
541828.0 1094548.0 9159.0
535018.0 1089747.0 9138.0
541619.0 1094556.0 9080.0
535447.0 1090690.0 9041.0
539757.0 1093964.0 9223.0
539609.0 1094344.0 9137.0
541491.0 1095769.0 9181.0
541397.0 1095956.0 9056.0
533928.0 1090730.0 9095.0
537311.0 1093203.0 9110.0
541366.0 1096375.0 9083.0
539496.0 1095225.0 9147.0
538783.0 1094896.0 9188.0
539592.0 1095496.0 9151.0
541298.0 1096793.0 9221.0
536485.0 1093500.0 9191.0
540731.0 1096538.0 9057.0
536411.0 1093752.0 9187.0
539070.0 1095653.0 9108.0
539928.0 1096296.0 9050.0
538926.0 1095871.0 9085.0
535997.0 1094109.0 9200.0
539716.0 1096738.0 9051.0
540159.0 1097117.0 9184.0
539641.0 1096971.0 9083.0
535595.0 1094259.0 9136.0
539805.0 1097375.0 9217.0
539699.0 1097469.0 9201.0
539513.0 1097509.0 9108.0
540347.0 1098135.0 9078.0
535050.0 1095035.0 9187.0
537321.0 1096772.0 9143.0
534744.0 1095176.0 9167.0
534421.0 1095147.0 9213.0
534848.0 1095425.0 9117.0
538662.0 1100254.0 9167.0
535296.0 1098383.0 9127.0
533674.0 1097816.0 9092.0
532429.0 1097951.0 9150.0
532977.0 1098658.0 9207.0
534329.0 1099869.0 9234.0
533038.0 1099127.0 9174.0
534328.0 1099931.0 9067.0
534475.0 1100303.0 9115.0
542302.0 1093993.0 9074.0
541998.0 1094710.0 9213.0
540933.0 1096831.0 9190.0
541363.0 1094452.0 9181.0
540246.0 1097247.0 9106.0
540314.0 1096807.0 9080.0
541401.0 1090730.0 9197.0
540044.0 1097227.0 9188.0
540097.0 1096747.0 9121.0
540137.0 1096249.0 9077.0
539671.0 1097557.0 9096.0
539814.0 1097127.0 9148.0
539410.0 1097460.0 9218.0
539010.0 1095489.0 9151.0
537750.0 1097427.0 9237.0
537015.0 1097450.0 9124.0
536782.0 1097442.0 9176.0
536676.0 1092674.0 9154.0
536983.0 1090686.0 9044.0
537049.0 1090265.0 9132.0
535915.0 1096164.0 9184.0
536206.0 1093707.0 9082.0
535376.0 1098485.0 9219.0
535869.0 1094310.0 9069.0
536010.0 1093919.0 9096.0
536590.0 1090313.0 9200.0
535207.0 1097605.0 9094.0
535570.0 1095098.0 9153.0
535620.0 1094598.0 9095.0
535822.0 1094200.0 9196.0
535081.0 1095055.0 9225.0
535422.0 1090492.0 9051.0
535235.0 1090352.0 9124.0
535285.0 1089879.0 9108.0
535028.0 1090622.0 9206.0
535095.0 1090178.0 9223.0
535155.0 1089759.0 9206.0
534843.0 1090811.0 9207.0
533694.0 1090795.0 9178.0
532864.0 1098870.0 9098.0
536230.0 1097939.0 9103.0
536761.0 1097317.0 9196.0
537282.0 1097287.0 9075.0
536935.0 1097051.0 9144.0
539585.0 1097517.0 9195.0
534817.0 1095377.0 9057.0
534449.0 1095151.0 9196.0
534041.0 1095021.0 9138.0
539636.0 1097278.0 9158.0
535065.0 1095202.0 9151.0
539753.0 1097100.0 9132.0
539691.0 1096895.0 9068.0
535801.0 1094071.0 9040.0
538658.0 1094903.0 9098.0
536270.0 1093766.0 9136.0
536511.0 1093420.0 9125.0
537309.0 1093216.0 9064.0
536935.0 1093009.0 9198.0
541493.0 1094689.0 9188.0
536260.0 1092345.0 9183.0
541927.0 1094521.0 9199.0
534449.0 1091106.0 9187.0
533674.0 1090784.0 9186.0
534741.0 1090890.0 9227.0
535097.0 1090808.0 9122.0
535224.0 1090678.0 9043.0
535040.0 1090102.0 9132.0
537112.0 1090688.0 9154.0
539005.0 1091267.0 9196.0
536687.0 1090259.0 9228.0
539950.0 1091408.0 9041.0
539844.0 1087783.0 9045.0
539843.0 1087196.0 9040.0
540687.0 1087241.0 9060.0
534358.0 1099947.0 8916.0
534782.0 1090902.0 8956.0
535108.0 1090130.0 8944.0
535405.0 1092208.0 8940.0
535703.0 1093481.0 8950.0
535811.0 1096090.0 8912.0
535734.0 1090254.0 9004.0
535917.0 1093896.0 8965.0
536196.0 1093654.0 8884.0
537162.0 1098235.0 8975.0
537671.0 1093383.0 8844.0
538709.0 1091456.0 8889.0
538964.0 1096136.0 8845.0
539071.0 1095917.0 8945.0
539366.0 1094738.0 8894.0
539367.0 1095412.0 8996.0
539466.0 1097395.0 8902.0
539659.0 1096190.0 8951.0
539780.0 1093265.0 8842.0
539769.0 1087885.0 9006.0
539994.0 1087360.0 8880.0
540997.0 1097222.0 8946.0
541179.0 1096072.0 8950.0
542078.0 1094310.0 8987.0
542465.0 1088824.0 8960.0
539843.0 1087788.0 8844.0
542554.0 1089911.0 8916.0
538763.0 1091205.0 9001.0
538647.0 1091406.0 8869.0
542087.0 1094073.0 9022.0
542587.0 1094570.0 8865.0
542401.0 1094673.0 9036.0
537879.0 1091379.0 8941.0
535899.0 1090954.0 8884.0
535982.0 1091294.0 8886.0
535023.0 1090896.0 8984.0
534468.0 1090805.0 9000.0
537114.0 1092655.0 8848.0
541191.0 1096046.0 8971.0
541274.0 1096469.0 8980.0
540521.0 1096055.0 8914.0
539316.0 1095475.0 8967.0
536061.0 1093363.0 8852.0
535971.0 1093685.0 8952.0
539767.0 1096493.0 9031.0
540663.0 1097390.0 8924.0
535760.0 1094084.0 8982.0
539446.0 1097006.0 8996.0
539272.0 1097014.0 8893.0
540244.0 1097728.0 8861.0
540614.0 1098061.0 8988.0
539646.0 1097813.0 9024.0
540526.0 1098381.0 8866.0
539019.0 1097731.0 8881.0
538632.0 1097672.0 8898.0
539068.0 1097923.0 8938.0
535762.0 1095984.0 8949.0
538345.0 1097808.0 8885.0
534634.0 1095745.0 8989.0
534585.0 1095942.0 8858.0
535252.0 1098459.0 9021.0
537971.0 1100756.0 8887.0
532102.0 1097949.0 8907.0
532547.0 1098298.0 8968.0
532660.0 1098558.0 8857.0
541190.0 1096962.0 8963.0
540301.0 1098222.0 8960.0
540494.0 1097337.0 8982.0
540558.0 1096884.0 9028.0
540054.0 1098227.0 8988.0
539804.0 1098189.0 8988.0
539095.0 1097297.0 8982.0
538925.0 1097285.0 8963.0
539172.0 1095296.0 8960.0
538641.0 1097463.0 8879.0
539220.0 1090846.0 9022.0
537356.0 1093176.0 8971.0
537214.0 1090793.0 8935.0
535469.0 1098658.0 8994.0
536650.0 1090769.0 8907.0
536066.0 1093468.0 8954.0
536461.0 1090704.0 8943.0
535770.0 1093685.0 8938.0
535839.0 1093188.0 8863.0
536131.0 1091239.0 8929.0
536195.0 1090768.0 8869.0
534927.0 1097534.0 9028.0
535847.0 1091150.0 8859.0
535945.0 1090676.0 8952.0
535586.0 1090976.0 8906.0
535675.0 1090548.0 8967.0
535693.0 1090126.0 8897.0
534659.0 1095293.0 8967.0
535472.0 1090012.0 8994.0
535090.0 1090860.0 8919.0
533932.0 1097117.0 8893.0
534284.0 1095875.0 8842.0
534458.0 1095571.0 8888.0
539148.0 1097390.0 9031.0
539228.0 1097173.0 8971.0
539278.0 1097006.0 8861.0
535552.0 1094257.0 8981.0
539921.0 1096054.0 8939.0
536045.0 1093508.0 8925.0
536104.0 1093313.0 8912.0
537624.0 1093412.0 8849.0
536555.0 1092887.0 8987.0
536357.0 1092193.0 8860.0
536039.0 1091969.0 8881.0
534292.0 1090890.0 8878.0
536174.0 1091350.0 8952.0
536009.0 1091092.0 8875.0
535613.0 1090863.0 8942.0
536298.0 1091048.0 8838.0
535931.0 1090877.0 8862.0
535562.0 1090645.0 8995.0
535194.0 1090473.0 8927.0
535728.0 1090487.0 8971.0
535379.0 1090299.0 9031.0
536691.0 1090647.0 8978.0
535542.0 1090127.0 8880.0
535130.0 1089615.0 8917.0
539719.0 1088372.0 8934.0
533001.0 1097065.0 8693.0
534163.0 1090803.0 8775.0
534366.0 1095723.0 8791.0
534816.0 1095578.0 8800.0
534990.0 1089449.0 8705.0
534975.0 1090789.0 8783.0
535496.0 1094346.0 8768.0
535606.0 1095880.0 8644.0
535548.0 1089596.0 8705.0
535746.0 1092878.0 8695.0
535856.0 1091696.0 8815.0
535906.0 1092395.0 8668.0
536402.0 1097373.0 8704.0
536398.0 1091074.0 8737.0
537330.0 1093505.0 8748.0
537777.0 1091399.0 8807.0
537834.0 1093373.0 8798.0
537962.0 1093359.0 8774.0
538187.0 1096321.0 8681.0
537946.0 1091025.0 8817.0
538110.0 1093251.0 8790.0
538461.0 1093012.0 8647.0
538670.0 1097446.0 8657.0
538617.0 1091928.0 8650.0
539123.0 1095162.0 8715.0
539299.0 1098035.0 8654.0
539239.0 1094403.0 8666.0
539233.0 1095185.0 8822.0
540047.0 1097920.0 8825.0
540945.0 1097471.0 8713.0
541454.0 1097048.0 8825.0
542417.0 1094019.0 8653.0
542484.0 1090862.0 8809.0
542637.0 1094137.0 8816.0
542782.0 1094013.0 8648.0
543102.0 1094569.0 8641.0
542502.0 1088867.0 8663.0
539868.0 1087305.0 8790.0
542454.0 1090850.0 8693.0
543248.0 1094275.0 8755.0
537685.0 1091277.0 8774.0
537310.0 1091201.0 8757.0
537758.0 1091522.0 8685.0
536515.0 1090915.0 8818.0
541271.0 1094423.0 8685.0
539581.0 1093383.0 8764.0
539484.0 1093815.0 8821.0
534929.0 1090975.0 8696.0
535825.0 1091650.0 8732.0
537988.0 1093285.0 8758.0
541913.0 1096145.0 8653.0
534411.0 1090949.0 8803.0
537809.0 1093381.0 8711.0
539129.0 1094541.0 8655.0
535712.0 1092241.0 8763.0
539168.0 1094779.0 8731.0
539242.0 1095042.0 8745.0
541018.0 1096306.0 8769.0
538956.0 1095064.0 8657.0
540324.0 1096158.0 8835.0
541079.0 1097319.0 8704.0
538826.0 1096229.0 8783.0
538657.0 1096295.0 8735.0
538372.0 1096253.0 8665.0
538870.0 1097112.0 8708.0
539474.0 1097760.0 8657.0
540340.0 1098435.0 8709.0
540382.0 1098622.0 8676.0
539992.0 1098467.0 8651.0
538498.0 1097685.0 8796.0
535367.0 1095636.0 8669.0
534705.0 1095450.0 8809.0
535351.0 1098639.0 8811.0
542413.0 1094015.0 8814.0
540751.0 1097307.0 8836.0
540315.0 1097795.0 8656.0
538252.0 1100592.0 8711.0
538674.0 1097704.0 8731.0
539182.0 1094845.0 8767.0
538645.0 1096958.0 8682.0
540392.0 1086933.0 8822.0
538215.0 1098013.0 8745.0
538457.0 1095036.0 8754.0
537768.0 1097900.0 8782.0
538109.0 1095920.0 8727.0
538237.0 1094919.0 8776.0
538343.0 1092895.0 8759.0
538014.0 1093185.0 8787.0
538271.0 1091759.0 8760.0
536896.0 1097011.0 8717.0
537019.0 1096579.0 8778.0
537515.0 1093384.0 8819.0
537586.0 1091220.0 8742.0
537349.0 1091382.0 8822.0
537358.0 1090957.0 8684.0
536801.0 1091181.0 8794.0
535590.0 1095728.0 8794.0
536340.0 1091147.0 8821.0
535996.0 1091743.0 8772.0
534418.0 1100035.0 8641.0
535929.0 1090188.0 8801.0
534472.0 1097767.0 8684.0
533910.0 1097039.0 8738.0
532958.0 1099232.0 8791.0
532812.0 1098979.0 8771.0
532633.0 1098424.0 8683.0
536171.0 1099292.0 8741.0
532237.0 1097011.0 8818.0
537334.0 1098053.0 8706.0
535481.0 1096176.0 8639.0
535586.0 1095793.0 8820.0
539242.0 1096560.0 8789.0
535384.0 1094508.0 8767.0
538235.0 1094877.0 8687.0
535807.0 1093726.0 8707.0
536579.0 1092653.0 8808.0
538283.0 1093058.0 8735.0
538446.0 1092801.0 8730.0
536142.0 1091789.0 8676.0
533914.0 1090732.0 8796.0
537429.0 1091551.0 8757.0
537028.0 1091406.0 8719.0
536668.0 1091199.0 8798.0
537950.0 1091601.0 8706.0
536451.0 1090940.0 8740.0
535903.0 1090325.0 8823.0
535122.0 1089953.0 8757.0
535489.0 1089851.0 8782.0
539556.0 1091357.0 8798.0
533562.0 1097324.0 8592.0
534162.0 1099858.0 8567.0
534349.0 1095645.0 8449.0
534356.0 1100055.0 8595.0
534395.0 1091007.0 8598.0
534514.0 1095460.0 8592.0
535557.0 1092911.0 8490.0
536159.0 1097403.0 8548.0
536813.0 1091333.0 8477.0
538569.0 1097376.0 8479.0
538632.0 1091238.0 8440.0
538828.0 1095052.0 8454.0
538860.0 1092116.0 8503.0
539009.0 1094134.0 8443.0
539127.0 1094414.0 8594.0
541210.0 1096509.0 8550.0
541058.0 1091349.0 8584.0
541276.0 1094502.0 8558.0
541254.0 1090930.0 8497.0
542842.0 1094867.0 8456.0
542901.0 1094702.0 8542.0
542971.0 1094343.0 8623.0
543152.0 1093803.0 8482.0
542496.0 1088578.0 8505.0
542380.0 1089343.0 8513.0
542313.0 1090897.0 8568.0
541081.0 1091096.0 8566.0
541094.0 1091587.0 8601.0
541185.0 1091950.0 8606.0
543385.0 1093914.0 8538.0
543142.0 1094363.0 8608.0
543019.0 1094352.0 8513.0
543052.0 1094612.0 8543.0
543157.0 1094800.0 8445.0
539861.0 1092566.0 8463.0
537864.0 1091792.0 8465.0
539091.0 1092756.0 8537.0
539307.0 1093850.0 8547.0
536232.0 1091910.0 8565.0
534921.0 1091119.0 8438.0
539152.0 1094343.0 8614.0
534035.0 1090770.0 8586.0
534525.0 1091044.0 8454.0
537757.0 1093479.0 8536.0
537463.0 1093431.0 8612.0
535911.0 1092486.0 8522.0
536151.0 1092935.0 8476.0
535684.0 1092977.0 8635.0
538089.0 1096431.0 8545.0
538661.0 1097340.0 8617.0
539947.0 1098588.0 8502.0
534272.0 1095259.0 8519.0
534444.0 1096024.0 8569.0
536148.0 1097217.0 8520.0
536273.0 1097492.0 8507.0
533943.0 1096843.0 8509.0
538128.0 1100308.0 8481.0
534502.0 1098023.0 8577.0
534673.0 1098221.0 8453.0
535472.0 1098818.0 8489.0
532323.0 1098367.0 8583.0
532782.0 1098883.0 8491.0
533235.0 1099220.0 8537.0
543108.0 1094682.0 8456.0
541132.0 1096472.0 8528.0
540477.0 1098244.0 8606.0
539111.0 1098742.0 8474.0
538925.0 1096804.0 8470.0
538769.0 1096726.0 8486.0
538413.0 1097941.0 8623.0
538441.0 1096665.0 8635.0
537954.0 1097971.0 8610.0
538192.0 1096009.0 8594.0
538507.0 1092972.0 8615.0
538641.0 1092035.0 8596.0
537776.0 1096046.0 8556.0
536229.0 1099336.0 8471.0
535445.0 1096132.0 8544.0
535332.0 1095621.0 8617.0
535629.0 1091614.0 8491.0
534340.0 1096178.0 8599.0
534917.0 1091281.0 8551.0
533491.0 1097302.0 8513.0
533111.0 1096907.0 8572.0
533887.0 1097036.0 8592.0
534089.0 1097080.0 8584.0
535343.0 1095595.0 8487.0
535371.0 1093119.0 8447.0
539052.0 1094521.0 8520.0
535436.0 1092894.0 8486.0
542832.0 1094584.0 8460.0
538423.0 1092567.0 8466.0
535372.0 1091233.0 8518.0
537556.0 1091893.0 8438.0
536376.0 1091447.0 8510.0
537774.0 1091809.0 8533.0
539033.0 1092109.0 8530.0
537690.0 1090963.0 8534.0
535864.0 1090106.0 8457.0
535143.0 1089424.0 8551.0
542347.0 1090860.0 8614.0
542733.0 1087854.0 8520.0
532320.0 1098506.0 8410.0
532768.0 1099168.0 8363.0
533635.0 1090463.0 8422.0
534268.0 1095853.0 8437.0
534487.0 1097849.0 8412.0
535083.0 1093142.0 8353.0
535540.0 1095902.0 8317.0
536005.0 1090969.0 8324.0
536067.0 1093139.0 8401.0
536844.0 1090586.0 8340.0
536943.0 1093549.0 8395.0
537136.0 1093783.0 8364.0
537358.0 1090901.0 8429.0
537655.0 1091831.0 8317.0
537691.0 1093289.0 8323.0
537808.0 1091891.0 8347.0
537781.0 1090094.0 8371.0
537834.0 1090700.0 8402.0
538123.0 1096058.0 8388.0
538143.0 1096697.0 8406.0
538350.0 1092071.0 8407.0
538561.0 1096757.0 8381.0
538497.0 1092286.0 8427.0
538673.0 1094548.0 8290.0
538818.0 1094286.0 8407.0
539087.0 1092162.0 8428.0
539198.0 1093649.0 8257.0
539241.0 1092107.0 8368.0
539229.0 1092868.0 8425.0
539324.0 1093636.0 8382.0
539333.0 1092036.0 8422.0
539471.0 1093333.0 8330.0
539971.0 1098422.0 8295.0
539653.0 1087746.0 8320.0
541044.0 1092710.0 8265.0
541409.0 1096819.0 8326.0
541449.0 1092955.0 8326.0
541728.0 1092983.0 8319.0
542053.0 1091070.0 8251.0
543030.0 1088047.0 8274.0
543055.0 1087825.0 8253.0
542427.0 1088896.0 8371.0
542257.0 1089379.0 8276.0
541667.0 1092841.0 8332.0
540810.0 1092441.0 8403.0
541297.0 1092797.0 8323.0
540783.0 1092554.0 8281.0
541231.0 1092883.0 8238.0
539337.0 1091953.0 8363.0
542984.0 1094825.0 8413.0
539347.0 1092138.0 8298.0
536791.0 1090488.0 8365.0
542684.0 1095058.0 8295.0
537773.0 1091872.0 8311.0
539163.0 1092921.0 8402.0
539467.0 1093392.0 8433.0
536589.0 1091436.0 8274.0
537433.0 1092028.0 8343.0
538748.0 1094142.0 8373.0
536605.0 1092727.0 8378.0
538803.0 1094366.0 8414.0
537194.0 1093425.0 8427.0
538530.0 1094309.0 8320.0
537139.0 1093567.0 8369.0
541354.0 1096706.0 8373.0
541233.0 1097541.0 8299.0
539315.0 1097364.0 8435.0
539062.0 1097338.0 8349.0
539975.0 1097986.0 8301.0
539395.0 1098244.0 8305.0
539780.0 1098603.0 8314.0
535608.0 1095919.0 8361.0
535678.0 1096180.0 8394.0
534299.0 1095535.0 8409.0
538147.0 1098281.0 8405.0
539080.0 1098908.0 8320.0
533481.0 1097263.0 8262.0
532746.0 1099022.0 8386.0
543089.0 1088225.0 8303.0
541308.0 1096872.0 8286.0
541316.0 1092963.0 8352.0
540009.0 1098626.0 8342.0
540792.0 1090935.0 8283.0
539216.0 1098880.0 8296.0
539135.0 1093862.0 8263.0
538127.0 1097581.0 8245.0
538878.0 1091739.0 8387.0
537354.0 1097885.0 8418.0
537649.0 1093067.0 8261.0
537062.0 1093529.0 8365.0
536441.0 1092575.0 8323.0
536033.0 1092015.0 8271.0
535279.0 1089496.0 8275.0
534680.0 1090978.0 8408.0
532975.0 1098712.0 8398.0
535531.0 1098749.0 8363.0
534624.0 1097920.0 8424.0
536859.0 1098712.0 8340.0
537377.0 1097963.0 8317.0
534546.0 1095244.0 8301.0
538687.0 1094160.0 8262.0
536474.0 1092052.0 8336.0
538734.0 1092811.0 8294.0
534609.0 1090900.0 8244.0
533817.0 1090586.0 8265.0
539494.0 1092903.0 8280.0
538669.0 1092510.0 8347.0
534719.0 1090739.0 8359.0
541759.0 1093114.0 8360.0
541351.0 1092954.0 8348.0
538208.0 1091580.0 8422.0
538436.0 1091380.0 8261.0
537623.0 1090757.0 8242.0
539556.0 1091276.0 8293.0
540935.0 1091248.0 8388.0
540767.0 1091108.0 8306.0
541928.0 1090819.0 8268.0
542311.0 1088483.0 8265.0
534316.0 1091106.0 8126.0
534413.0 1096239.0 8187.0
534591.0 1095079.0 8081.0
534723.0 1090601.0 8113.0
534888.0 1091202.0 8171.0
534972.0 1093329.0 8217.0
535029.0 1095525.0 8207.0
535257.0 1093327.0 8221.0
535444.0 1092975.0 8237.0
536583.0 1091719.0 8200.0
537883.0 1096256.0 8232.0
538346.0 1092495.0 8059.0
538409.0 1094043.0 8111.0
538486.0 1092754.0 8055.0
538532.0 1094057.0 8184.0
538580.0 1094716.0 8204.0
539099.0 1093451.0 8103.0
539483.0 1091348.0 8078.0
539529.0 1087823.0 8086.0
540368.0 1092697.0 8069.0
540614.0 1092738.0 8145.0
540691.0 1090700.0 8076.0
540849.0 1093016.0 8069.0
540787.0 1090710.0 8132.0
540904.0 1092784.0 8191.0
541005.0 1091175.0 8100.0
541323.0 1097930.0 8163.0
541529.0 1090725.0 8136.0
541655.0 1090578.0 8085.0
541776.0 1090750.0 8132.0
541890.0 1090752.0 8169.0
542092.0 1093058.0 8052.0
542200.0 1089139.0 8112.0
542649.0 1095379.0 8076.0
542850.0 1095238.0 8162.0
542553.0 1088355.0 8041.0
542568.0 1087633.0 8097.0
542560.0 1087881.0 8216.0
542145.0 1088112.0 8112.0
539622.0 1087891.0 8202.0
542082.0 1089750.0 8117.0
541961.0 1090646.0 8186.0
541691.0 1090577.0 8047.0
540680.0 1090576.0 8054.0
543215.0 1093262.0 8053.0
539473.0 1091365.0 8141.0
540967.0 1092843.0 8174.0
540842.0 1092883.0 8113.0
540436.0 1092717.0 8081.0
540876.0 1093049.0 8038.0
539812.0 1092419.0 8050.0
537321.0 1090723.0 8177.0
536242.0 1090388.0 8083.0
539623.0 1092938.0 8102.0
542692.0 1095237.0 8152.0
538275.0 1092185.0 8215.0
542568.0 1095346.0 8084.0
537812.0 1092039.0 8173.0
542218.0 1095328.0 8166.0
538725.0 1092951.0 8134.0
538503.0 1092971.0 8045.0
538946.0 1093650.0 8087.0
534010.0 1090839.0 8220.0
538424.0 1093947.0 8106.0
541469.0 1096981.0 8058.0
541228.0 1097678.0 8060.0
534938.0 1093361.0 8191.0
535367.0 1093611.0 8080.0
535218.0 1093696.0 8071.0
539193.0 1097477.0 8070.0
539585.0 1097839.0 8102.0
535221.0 1095583.0 8210.0
538654.0 1097990.0 8169.0
538474.0 1098110.0 8155.0
536486.0 1097038.0 8140.0
534415.0 1096116.0 8226.0
535937.0 1097560.0 8112.0
534688.0 1098346.0 8231.0
532402.0 1098457.0 8110.0
542908.0 1095154.0 8131.0
540739.0 1097867.0 8082.0
541666.0 1092707.0 8225.0
541977.0 1090737.0 8206.0
540480.0 1097804.0 8192.0
541668.0 1090576.0 8116.0
540917.0 1092856.0 8136.0
539752.0 1098189.0 8068.0
541032.0 1090661.0 8123.0
539291.0 1099042.0 8138.0
538615.0 1094442.0 8213.0
537702.0 1098360.0 8233.0
538452.0 1094093.0 8193.0
538544.0 1093138.0 8183.0
537261.0 1091659.0 8109.0
535660.0 1098862.0 8128.0
536742.0 1090206.0 8111.0
533080.0 1098667.0 8077.0
535154.0 1098626.0 8188.0
534814.0 1098431.0 8183.0
536871.0 1098656.0 8129.0
535034.0 1097452.0 8192.0
535686.0 1097528.0 8169.0
536164.0 1097424.0 8215.0
535694.0 1095841.0 8221.0
534675.0 1095196.0 8118.0
538289.0 1094058.0 8045.0
539038.0 1093638.0 8199.0
537812.0 1093071.0 8198.0
535340.0 1091583.0 8081.0
540459.0 1092947.0 8047.0
535967.0 1090940.0 8084.0
539719.0 1091153.0 8141.0
540813.0 1090944.0 8166.0
540447.0 1090819.0 8103.0
542019.0 1090580.0 8187.0
541637.0 1090462.0 8061.0
542742.0 1087737.0 8119.0
533505.0 1097369.0 7946.0
534299.0 1095692.0 8037.0
535862.0 1090878.0 8000.0
535908.0 1092240.0 8007.0
536546.0 1093646.0 7926.0
537273.0 1097818.0 8003.0
537520.0 1091586.0 7998.0
537627.0 1092252.0 7853.0
537655.0 1092892.0 7869.0
537676.0 1094141.0 7985.0
537801.0 1096169.0 7891.0
537826.0 1092591.0 7945.0
537886.0 1094018.0 7939.0
537835.0 1090379.0 8014.0
538078.0 1092116.0 7917.0
538106.0 1092737.0 8003.0
538186.0 1094043.0 7968.0
538238.0 1092658.0 8035.0
538294.0 1094122.0 8016.0
538915.0 1093494.0 8020.0
539224.0 1091421.0 7866.0
539354.0 1091309.0 7911.0
539633.0 1092705.0 7953.0
539967.0 1090900.0 8025.0
540041.0 1087160.0 8009.0
540292.0 1090610.0 7967.0
540561.0 1090454.0 7910.0
541570.0 1089950.0 7879.0
541664.0 1089749.0 7919.0
541887.0 1089955.0 8022.0
541955.0 1087870.0 8009.0
542370.0 1087395.0 7895.0
542525.0 1087511.0 7941.0
543132.0 1095684.0 7892.0
542552.0 1087629.0 8024.0
542610.0 1088308.0 7969.0
542993.0 1093264.0 8035.0
543126.0 1095391.0 8032.0
541218.0 1086248.0 7985.0
542656.0 1087404.0 7918.0
542438.0 1087867.0 8019.0
542189.0 1088331.0 8032.0
541644.0 1089312.0 7918.0
539564.0 1088051.0 7992.0
541434.0 1089411.0 7867.0
541810.0 1089771.0 7996.0
541766.0 1090011.0 7999.0
541554.0 1090017.0 7905.0
541533.0 1090193.0 7854.0
541333.0 1090231.0 7886.0
540377.0 1090730.0 7990.0
539917.0 1090705.0 7929.0
539058.0 1090935.0 7912.0
539280.0 1091490.0 7976.0
539103.0 1091641.0 7913.0
540225.0 1092710.0 8000.0
540656.0 1093010.0 7978.0
539708.0 1092490.0 7956.0
540185.0 1092802.0 7901.0
538784.0 1091906.0 7907.0
537374.0 1091397.0 7898.0
543086.0 1095647.0 7839.0
537425.0 1091623.0 7851.0
538271.0 1092333.0 7961.0
539165.0 1092953.0 8028.0
543162.0 1095898.0 7847.0
539224.0 1093226.0 7934.0
542193.0 1095477.0 8018.0
534790.0 1090290.0 8035.0
536619.0 1091616.0 7983.0
541805.0 1095447.0 7960.0
536412.0 1091726.0 7916.0
537688.0 1092714.0 7982.0
537618.0 1092869.0 7915.0
534515.0 1091050.0 7999.0
534277.0 1091045.0 8023.0
535197.0 1091645.0 7930.0
535996.0 1092312.0 8005.0
535848.0 1092382.0 7853.0
538416.0 1094707.0 8033.0
536624.0 1093632.0 7870.0
535796.0 1093417.0 7994.0
535535.0 1093504.0 8037.0
537768.0 1096170.0 7903.0
539678.0 1097991.0 8034.0
539671.0 1098075.0 7880.0
533980.0 1095101.0 7956.0
537671.0 1098298.0 7969.0
536035.0 1097399.0 7971.0
535601.0 1097282.0 7872.0
533420.0 1097327.0 7877.0
