506388.0 1144434.0 14010.0
506733.0 1143813.0 13851.0
506982.0 1143738.0 13946.0
507475.0 1143920.0 13850.0
507042.0 1143602.0 13863.0
506856.0 1143237.0 13907.0
506770.0 1143034.0 13928.0
506259.0 1142166.0 13885.0
511609.0 1145434.0 13924.0
507776.0 1142737.0 13943.0
506979.0 1141805.0 13947.0
508248.0 1142367.0 14022.0
509288.0 1142301.0 13876.0
506286.0 1141025.0 13684.0
506537.0 1140953.0 13814.0
506339.0 1142323.0 13721.0
506491.0 1147540.0 13786.0
506776.0 1148254.0 13673.0
507873.0 1143142.0 13751.0
507825.0 1143634.0 13673.0
507687.0 1144124.0 13822.0
506960.0 1149137.0 13757.0
508390.0 1142134.0 13777.0
508198.0 1143018.0 13801.0
508140.0 1143450.0 13813.0
506324.0 1155274.0 13656.0
506514.0 1155233.0 13736.0
508000.0 1150074.0 13662.0
508206.0 1150213.0 13827.0
507671.0 1155863.0 13654.0
510653.0 1142915.0 13661.0
511001.0 1144555.0 13655.0
511070.0 1145768.0 13713.0
511441.0 1145038.0 13686.0
511330.0 1145520.0 13785.0
511302.0 1145982.0 13737.0
511884.0 1143634.0 13658.0
511583.0 1145105.0 13776.0
512090.0 1142925.0 13833.0
512027.0 1146770.0 13718.0
511368.0 1153921.0 13638.0
511190.0 1154814.0 13678.0
510894.0 1156637.0 13795.0
511189.0 1156699.0 13675.0
511560.0 1157685.0 13728.0
511156.0 1159944.0 13836.0
512545.0 1154796.0 13759.0
513724.0 1153494.0 13661.0
513930.0 1153657.0 13719.0
514287.0 1153314.0 13725.0
516234.0 1154983.0 13786.0
516650.0 1153694.0 13664.0
516408.0 1155149.0 13768.0
516838.0 1153704.0 13673.0
516533.0 1161503.0 13640.0
517810.0 1156392.0 13783.0
517690.0 1157279.0 13734.0
518285.0 1154965.0 13798.0
518571.0 1155685.0 13726.0
518272.0 1161825.0 13813.0
520964.0 1161276.0 13835.0
521779.0 1157727.0 13674.0
521997.0 1157428.0 13773.0
521998.0 1157948.0 13669.0
522515.0 1157678.0 13774.0
523064.0 1158311.0 13800.0
523060.0 1158805.0 13638.0
523458.0 1159454.0 13743.0
523955.0 1157918.0 13799.0
524294.0 1157848.0 13736.0
524161.0 1159386.0 13672.0
524772.0 1156793.0 13744.0
524559.0 1158900.0 13649.0
524491.0 1161692.0 13783.0
525378.0 1159376.0 13660.0
525159.0 1161025.0 13721.0
525241.0 1160999.0 13837.0
525224.0 1161965.0 13686.0
525922.0 1160255.0 13638.0
525988.0 1161899.0 13711.0
510825.0 1140956.0 13655.0
508313.0 1140513.0 13769.0
512045.0 1142608.0 13698.0
507684.0 1141060.0 13725.0
506122.0 1140746.0 13728.0
506220.0 1141083.0 13657.0
506815.0 1141893.0 13688.0
507702.0 1142891.0 13768.0
507756.0 1143159.0 13672.0
508116.0 1143392.0 13823.0
511522.0 1145019.0 13827.0
508021.0 1143646.0 13813.0
511389.0 1145249.0 13775.0
511011.0 1145354.0 13781.0
511377.0 1145550.0 13829.0
510872.0 1145493.0 13729.0
511198.0 1145687.0 13733.0
511353.0 1146056.0 13691.0
511969.0 1146745.0 13766.0
506493.0 1145014.0 13806.0
506187.0 1145106.0 13758.0
506444.0 1147792.0 13669.0
522079.0 1155621.0 13800.0
522435.0 1155774.0 13723.0
522807.0 1155936.0 13746.0
516924.0 1153343.0 13685.0
506891.0 1149159.0 13657.0
516593.0 1153676.0 13665.0
521141.0 1155948.0 13646.0
524457.0 1157655.0 13736.0
523720.0 1157451.0 13655.0
524152.0 1157635.0 13648.0
508151.0 1150247.0 13784.0
513418.0 1152715.0 13742.0
514151.0 1153088.0 13721.0
524084.0 1157868.0 13762.0
527139.0 1159468.0 13668.0
513638.0 1153075.0 13804.0
518089.0 1155132.0 13646.0
521483.0 1156809.0 13709.0
522229.0 1157228.0 13708.0
522611.0 1157381.0 13722.0
524091.0 1158156.0 13805.0
525227.0 1158724.0 13666.0
522123.0 1157420.0 13668.0
522490.0 1157606.0 13693.0
524866.0 1158845.0 13791.0
515986.0 1154795.0 13758.0
521978.0 1157658.0 13655.0
523089.0 1158303.0 13816.0
524618.0 1158971.0 13655.0
520479.0 1157332.0 13698.0
521989.0 1158036.0 13671.0
523120.0 1158651.0 13821.0
517738.0 1156380.0 13742.0
523696.0 1159305.0 13787.0
511097.0 1153638.0 13771.0
515216.0 1155533.0 13723.0
517891.0 1156800.0 13701.0
525323.0 1160794.0 13683.0
511700.0 1154575.0 13743.0
517622.0 1157324.0 13707.0
525187.0 1161061.0 13735.0
510936.0 1154566.0 13772.0
524877.0 1161251.0 13810.0
525023.0 1161575.0 13774.0
524272.0 1161700.0 13716.0
523917.0 1161803.0 13808.0
523270.0 1161956.0 13708.0
521141.0 1161236.0 13820.0
520839.0 1161311.0 13803.0
510943.0 1156870.0 13709.0
520672.0 1161420.0 13714.0
520287.0 1161501.0 13716.0
507885.0 1155995.0 13758.0
506486.0 1155623.0 13773.0
513056.0 1159307.0 13732.0
518176.0 1161748.0 13723.0
516877.0 1161938.0 13715.0
511277.0 1160054.0 13684.0
509854.0 1160670.0 13822.0
509975.0 1161491.0 13638.0
525303.0 1160984.0 13732.0
525267.0 1158684.0 13700.0
525133.0 1161932.0 13713.0
525006.0 1161449.0 13674.0
524160.0 1157505.0 13653.0
523526.0 1159291.0 13776.0
523049.0 1161871.0 13648.0
523088.0 1158491.0 13719.0
522492.0 1157565.0 13745.0
522337.0 1157521.0 13716.0
522355.0 1156925.0 13819.0
522269.0 1155746.0 13639.0
522137.0 1155665.0 13721.0
521873.0 1156832.0 13664.0
521723.0 1157825.0 13825.0
520634.0 1161415.0 13734.0
520083.0 1157382.0 13657.0
518309.0 1154882.0 13690.0
518189.0 1155472.0 13824.0
518022.0 1161785.0 13813.0
516436.0 1155329.0 13817.0
516464.0 1161443.0 13705.0
513938.0 1153428.0 13731.0
513616.0 1159773.0 13688.0
513296.0 1154878.0 13750.0
513291.0 1153030.0 13756.0
512922.0 1155382.0 13668.0
511763.0 1143619.0 13763.0
511769.0 1154451.0 13748.0
511687.0 1153728.0 13654.0
511584.0 1154294.0 13835.0
511307.0 1144874.0 13757.0
511160.0 1146027.0 13770.0
510776.0 1145566.0 13647.0
510760.0 1144325.0 13683.0
510738.0 1145536.0 13828.0
510627.0 1144243.0 13655.0
510617.0 1142901.0 13655.0
508435.0 1142439.0 13815.0
508247.0 1143646.0 13819.0
508214.0 1142991.0 13789.0
508014.0 1143205.0 13717.0
507969.0 1140359.0 13765.0
507927.0 1143410.0 13748.0
507800.0 1143975.0 13751.0
507796.0 1143277.0 13783.0
507684.0 1144259.0 13778.0
507653.0 1142868.0 13824.0
507529.0 1144222.0 13821.0
506758.0 1144781.0 13817.0
506758.0 1150127.0 13765.0
506582.0 1144985.0 13819.0
506513.0 1144390.0 13808.0
506299.0 1145079.0 13712.0
506192.0 1142278.0 13736.0
506102.0 1140923.0 13666.0
506616.0 1155178.0 13738.0
506112.0 1145412.0 13756.0
506331.0 1159048.0 13711.0
511150.0 1160155.0 13718.0
507135.0 1156348.0 13677.0
507269.0 1156126.0 13804.0
506443.0 1155203.0 13825.0
516429.0 1161866.0 13725.0
513644.0 1159848.0 13791.0
513205.0 1159467.0 13734.0
511455.0 1157733.0 13688.0
511629.0 1157687.0 13709.0
510856.0 1156756.0 13726.0
510877.0 1154674.0 13638.0
520778.0 1161349.0 13777.0
510873.0 1154360.0 13712.0
511642.0 1154418.0 13775.0
511560.0 1154163.0 13707.0
511178.0 1153846.0 13709.0
511055.0 1153566.0 13681.0
523446.0 1161945.0 13809.0
523708.0 1161847.0 13799.0
523958.0 1161806.0 13735.0
524276.0 1161855.0 13715.0
517510.0 1157186.0 13811.0
524306.0 1161779.0 13691.0
524283.0 1161606.0 13726.0
508258.0 1150310.0 13750.0
508230.0 1150140.0 13773.0
525133.0 1161598.0 13777.0
522504.0 1159918.0 13660.0
517971.0 1156427.0 13792.0
513703.0 1153417.0 13737.0
525265.0 1161025.0 13732.0
516662.0 1155167.0 13738.0
523520.0 1159476.0 13832.0
520131.0 1157206.0 13822.0
506347.0 1147448.0 13740.0
524124.0 1159451.0 13664.0
521876.0 1157926.0 13764.0
518254.0 1155451.0 13803.0
521849.0 1157754.0 13721.0
521475.0 1157410.0 13804.0
518041.0 1155190.0 13663.0
524937.0 1159572.0 13698.0
524518.0 1159314.0 13687.0
521965.0 1157706.0 13660.0
518211.0 1155113.0 13700.0
523063.0 1158177.0 13836.0
522582.0 1157917.0 13661.0
522122.0 1157636.0 13659.0
518486.0 1155140.0 13740.0
516665.0 1153889.0 13683.0
523897.0 1158497.0 13771.0
522569.0 1157689.0 13727.0
522117.0 1157410.0 13656.0
521343.0 1156742.0 13780.0
518754.0 1155036.0 13817.0
524720.0 1158823.0 13787.0
522172.0 1157225.0 13667.0
521776.0 1156933.0 13684.0
523696.0 1157955.0 13782.0
522276.0 1157081.0 13715.0
524959.0 1158582.0 13801.0
522415.0 1156947.0 13728.0
506539.0 1144930.0 13785.0
522543.0 1155912.0 13665.0
522170.0 1155670.0 13703.0
522424.0 1155663.0 13820.0
506805.0 1144792.0 13790.0
507009.0 1144766.0 13782.0
521905.0 1154856.0 13652.0
507365.0 1144558.0 13774.0
507545.0 1144412.0 13812.0
507667.0 1143897.0 13750.0
510503.0 1145661.0 13657.0
508079.0 1143821.0 13798.0
508169.0 1143749.0 13803.0
507748.0 1143484.0 13713.0
508114.0 1143528.0 13776.0
508234.0 1143396.0 13781.0
507811.0 1143148.0 13709.0
508153.0 1143134.0 13738.0
510236.0 1144195.0 13818.0
510761.0 1144282.0 13649.0
508479.0 1142298.0 13807.0
509238.0 1142506.0 13807.0
508345.0 1141950.0 13724.0
506070.0 1141012.0 13596.0
506542.0 1141418.0 13628.0
506005.0 1145044.0 13492.0
506422.0 1144631.0 13600.0
507101.0 1141657.0 13540.0
506108.0 1148621.0 13544.0
506483.0 1147993.0 13615.0
506357.0 1148911.0 13573.0
506711.0 1149259.0 13439.0
506549.0 1155655.0 13547.0
507357.0 1156038.0 13522.0
511164.0 1145344.0 13499.0
511738.0 1143539.0 13462.0
511646.0 1144040.0 13446.0
512009.0 1142627.0 13610.0
511802.0 1144161.0 13562.0
511936.0 1146802.0 13480.0
510004.0 1159497.0 13458.0
510968.0 1154756.0 13546.0
510187.0 1159626.0 13556.0
511493.0 1155187.0 13449.0
511154.0 1157167.0 13530.0
511853.0 1154883.0 13451.0
511731.0 1155321.0 13478.0
511936.0 1155418.0 13492.0
511503.0 1160293.0 13454.0
514886.0 1153826.0 13447.0
515193.0 1153821.0 13502.0
516098.0 1153225.0 13540.0
516092.0 1155183.0 13440.0
516498.0 1153412.0 13620.0
516225.0 1155504.0 13606.0
516781.0 1153298.0 13539.0
517000.0 1153294.0 13515.0
518077.0 1154966.0 13634.0
517805.0 1156872.0 13579.0
518158.0 1161810.0 13507.0
519651.0 1161870.0 13472.0
520972.0 1156021.0 13497.0
521196.0 1156012.0 13621.0
520502.0 1161765.0 13445.0
521436.0 1156911.0 13482.0
521258.0 1157924.0 13586.0
520815.0 1161551.0 13553.0
521617.0 1157149.0 13518.0
522053.0 1155867.0 13581.0
522343.0 1155411.0 13531.0
522265.0 1155856.0 13592.0
522340.0 1157601.0 13535.0
522675.0 1157203.0 13472.0
523099.0 1155367.0 13515.0
522834.0 1157400.0 13608.0
522591.0 1160003.0 13463.0
522926.0 1158504.0 13630.0
522756.0 1160086.0 13441.0
523985.0 1158418.0 13609.0
523858.0 1159364.0 13619.0
524554.0 1156795.0 13468.0
524893.0 1159261.0 13561.0
524871.0 1161700.0 13597.0
525584.0 1159533.0 13590.0
525806.0 1159577.0 13619.0
507915.0 1140538.0 13596.0
507748.0 1140718.0 13536.0
506056.0 1141240.0 13450.0
506524.0 1142183.0 13494.0
506239.0 1142369.0 13505.0
509300.0 1145327.0 13464.0
506173.0 1144805.0 13594.0
506150.0 1147360.0 13614.0
506089.0 1147568.0 13510.0
521529.0 1155001.0 13587.0
506198.0 1147916.0 13526.0
506549.0 1148122.0 13629.0
523236.0 1156064.0 13445.0
524666.0 1156818.0 13584.0
522062.0 1155809.0 13578.0
506252.0 1148532.0 13603.0
515665.0 1152996.0 13581.0
516343.0 1153308.0 13526.0
516735.0 1153491.0 13576.0
506178.0 1148783.0 13563.0
506543.0 1148954.0 13619.0
515532.0 1153123.0 13453.0
516268.0 1153435.0 13509.0
520783.0 1155700.0 13441.0
524899.0 1157710.0 13463.0
507053.0 1149386.0 13450.0
507424.0 1149593.0 13573.0
516539.0 1153857.0 13576.0
520956.0 1155988.0 13548.0
524572.0 1157830.0 13551.0
524957.0 1158054.0 13498.0
507832.0 1149991.0 13537.0
521075.0 1156281.0 13530.0
523788.0 1157569.0 13516.0
524497.0 1158007.0 13614.0
513310.0 1152844.0 13533.0
514047.0 1153171.0 13583.0
521161.0 1156548.0 13500.0
513479.0 1153192.0 13551.0
516315.0 1154869.0 13577.0
525378.0 1159379.0 13630.0
525802.0 1159539.0 13550.0
516070.0 1155081.0 13462.0
524251.0 1159118.0 13555.0
525733.0 1159849.0 13535.0
516177.0 1155557.0 13517.0
522940.0 1158831.0 13494.0
518168.0 1157194.0 13499.0
511386.0 1154337.0 13495.0
512462.0 1154807.0 13511.0
517715.0 1157577.0 13438.0
518038.0 1157729.0 13438.0
510963.0 1154739.0 13628.0
511326.0 1154933.0 13580.0
522942.0 1161687.0 13443.0
521408.0 1161759.0 13615.0
511128.0 1157127.0 13522.0
520705.0 1161607.0 13485.0
506407.0 1155313.0 13635.0
508300.0 1156117.0 13546.0
511380.0 1157533.0 13626.0
520383.0 1161714.0 13459.0
520397.0 1161939.0 13453.0
513409.0 1159516.0 13586.0
510187.0 1159562.0 13561.0
511690.0 1160155.0 13449.0
506337.0 1159123.0 13635.0
526892.0 1159397.0 13477.0
525251.0 1159244.0 13489.0
525070.0 1159361.0 13491.0
524980.0 1159482.0 13635.0
524743.0 1159358.0 13472.0
524726.0 1158795.0 13515.0
524332.0 1159251.0 13457.0
524347.0 1157960.0 13511.0
524218.0 1161649.0 13616.0
524157.0 1158077.0 13561.0
524004.0 1161664.0 13635.0
523882.0 1159049.0 13463.0
523947.0 1157743.0 13631.0
523648.0 1159390.0 13459.0
522543.0 1158173.0 13465.0
522448.0 1158212.0 13469.0
522252.0 1158124.0 13536.0
521994.0 1156952.0 13508.0
521600.0 1157238.0 13558.0
521032.0 1155941.0 13512.0
520195.0 1161647.0 13512.0
519483.0 1161667.0 13494.0
518292.0 1155401.0 13605.0
518119.0 1156851.0 13513.0
517922.0 1157233.0 13473.0
517768.0 1157396.0 13466.0
516551.0 1155019.0 13630.0
516300.0 1154700.0 13467.0
516205.0 1154987.0 13630.0
516030.0 1155217.0 13516.0
516008.0 1153425.0 13560.0
514987.0 1153463.0 13621.0
514081.0 1153445.0 13506.0
513732.0 1153478.0 13628.0
513343.0 1152583.0 13489.0
513233.0 1159343.0 13584.0
512696.0 1154646.0 13627.0
512431.0 1154715.0 13495.0
512026.0 1155413.0 13534.0
511872.0 1155274.0 13518.0
511711.0 1155172.0 13469.0
511174.0 1145536.0 13487.0
511473.0 1160279.0 13481.0
511309.0 1157331.0 13487.0
510828.0 1144483.0 13444.0
511367.0 1160081.0 13551.0
511242.0 1157522.0 13606.0
511158.0 1156880.0 13514.0
511120.0 1154925.0 13620.0
511042.0 1156690.0 13533.0
510909.0 1156582.0 13553.0
509450.0 1140247.0 13577.0
510062.0 1161528.0 13566.0
509471.0 1160819.0 13519.0
507793.0 1140980.0 13509.0
507967.0 1150269.0 13464.0
506909.0 1141607.0 13497.0
506810.0 1140873.0 13616.0
506845.0 1149200.0 13472.0
506528.0 1141242.0 13545.0
506273.0 1142399.0 13488.0
506312.0 1141173.0 13537.0
506403.0 1149323.0 13445.0
506355.0 1147871.0 13598.0
506197.0 1149117.0 13472.0
506171.0 1147618.0 13544.0
506201.0 1159242.0 13613.0
506266.0 1159461.0 13440.0
506370.0 1159356.0 13471.0
510222.0 1161526.0 13559.0
509344.0 1160812.0 13591.0
511337.0 1160146.0 13536.0
509858.0 1159114.0 13489.0
511499.0 1160049.0 13458.0
507217.0 1156307.0 13551.0
507325.0 1155990.0 13501.0
507659.0 1156046.0 13599.0
516454.0 1161679.0 13570.0
513348.0 1159448.0 13535.0
511450.0 1157478.0 13481.0
511640.0 1157505.0 13467.0
511232.0 1156922.0 13442.0
510803.0 1156526.0 13636.0
511761.0 1156326.0 13446.0
511836.0 1156212.0 13492.0
511301.0 1155031.0 13529.0
511153.0 1154060.0 13635.0
522947.0 1161917.0 13564.0
513288.0 1154929.0 13610.0
512790.0 1154628.0 13496.0
506756.0 1150004.0 13468.0
517656.0 1157517.0 13598.0
506160.0 1149330.0 13495.0
506323.0 1149327.0 13461.0
506139.0 1149072.0 13481.0
506032.0 1148840.0 13467.0
517968.0 1157151.0 13535.0
524638.0 1161382.0 13628.0
518562.0 1157308.0 13446.0
518152.0 1156971.0 13553.0
514118.0 1153728.0 13628.0
506344.0 1147881.0 13582.0
516693.0 1154953.0 13566.0
514991.0 1153709.0 13636.0
514077.0 1153231.0 13454.0
514986.0 1153499.0 13568.0
521416.0 1157639.0 13541.0
523062.0 1158654.0 13473.0
522246.0 1158112.0 13528.0
522375.0 1158051.0 13447.0
516454.0 1154029.0 13462.0
525077.0 1159397.0 13528.0
524218.0 1158640.0 13501.0
525835.0 1159489.0 13482.0
524507.0 1158403.0 13466.0
524122.0 1158088.0 13600.0
521572.0 1156433.0 13572.0
524386.0 1158028.0 13493.0
524289.0 1157684.0 13459.0
523842.0 1157376.0 13496.0
522065.0 1155767.0 13624.0
524490.0 1156992.0 13494.0
522379.0 1155569.0 13631.0
506498.0 1144630.0 13493.0
511873.0 1146921.0 13546.0
510666.0 1145654.0 13580.0
511489.0 1146201.0 13528.0
511100.0 1145878.0 13494.0
511281.0 1145876.0 13628.0
511224.0 1145570.0 13616.0
506414.0 1142227.0 13526.0
506757.0 1141084.0 13628.0
507368.0 1141380.0 13446.0
511222.0 1142718.0 13574.0
508238.0 1140427.0 13579.0
506147.0 1142502.0 13432.0
506587.0 1141912.0 13274.0
507701.0 1140733.0 13347.0
507548.0 1141110.0 13383.0
506341.0 1149339.0 13406.0
506379.0 1155689.0 13393.0
507510.0 1150423.0 13322.0
507678.0 1150760.0 13276.0
506351.0 1159191.0 13425.0
507170.0 1156207.0 13246.0
506502.0 1159512.0 13395.0
509429.0 1145385.0 13367.0
510711.0 1141032.0 13335.0
510420.0 1143024.0 13306.0
510987.0 1141073.0 13384.0
511368.0 1142074.0 13392.0
510890.0 1145589.0 13430.0
511649.0 1144547.0 13270.0
509836.0 1159541.0 13293.0
510826.0 1154720.0 13248.0
512286.0 1146267.0 13239.0
510132.0 1160646.0 13313.0
511020.0 1157060.0 13325.0
510268.0 1161520.0 13326.0
511784.0 1153351.0 13336.0
510465.0 1161476.0 13422.0
510749.0 1161751.0 13287.0
512208.0 1154558.0 13238.0
511883.0 1156363.0 13402.0
512321.0 1154970.0 13428.0
511842.0 1160228.0 13344.0
513147.0 1153994.0 13286.0
513461.0 1154201.0 13238.0
514380.0 1153807.0 13243.0
514673.0 1153745.0 13254.0
515938.0 1155089.0 13368.0
516329.0 1153663.0 13372.0
516312.0 1154172.0 13238.0
516492.0 1153947.0 13435.0
517112.0 1153732.0 13415.0
517714.0 1155987.0 13275.0
517637.0 1156525.0 13363.0
517550.0 1157521.0 13254.0
517780.0 1157802.0 13331.0
518193.0 1157519.0 13329.0
518444.0 1157229.0 13416.0
519499.0 1157464.0 13349.0
519721.0 1157543.0 13321.0
520463.0 1155762.0 13428.0
520247.0 1157663.0 13361.0
520761.0 1156175.0 13248.0
520557.0 1157700.0 13261.0
520253.0 1161777.0 13395.0
521179.0 1156548.0 13431.0
522514.0 1154408.0 13299.0
522327.0 1158109.0 13425.0
522857.0 1156204.0 13291.0
523285.0 1156360.0 13273.0
522954.0 1159047.0 13378.0
523599.0 1156435.0 13410.0
523296.0 1159502.0 13292.0
524251.0 1156955.0 13330.0
524383.0 1158924.0 13408.0
525643.0 1160035.0 13263.0
525796.0 1159713.0 13338.0
525520.0 1161759.0 13358.0
527354.0 1160810.0 13306.0
511071.0 1140339.0 13276.0
510587.0 1140914.0 13338.0
510655.0 1141690.0 13272.0
511407.0 1142070.0 13259.0
511561.0 1142424.0 13315.0
507403.0 1140795.0 13304.0
507299.0 1141097.0 13277.0
510355.0 1142918.0 13282.0
510439.0 1143184.0 13246.0
511569.0 1143828.0 13419.0
510879.0 1144529.0 13277.0
512202.0 1145752.0 13306.0
512334.0 1146069.0 13348.0
510283.0 1145475.0 13431.0
510685.0 1145574.0 13348.0
511042.0 1145779.0 13391.0
509713.0 1145462.0 13409.0
511883.0 1146853.0 13426.0
521859.0 1154234.0 13343.0
522239.0 1154327.0 13260.0
524555.0 1156379.0 13314.0
522927.0 1156117.0 13269.0
523321.0 1156321.0 13255.0
523189.0 1156579.0 13396.0
517041.0 1153764.0 13300.0
521912.0 1156147.0 13368.0
506282.0 1149041.0 13414.0
506671.0 1149213.0 13405.0
515814.0 1153384.0 13264.0
506306.0 1149250.0 13419.0
506688.0 1149401.0 13417.0
507091.0 1149553.0 13251.0
507468.0 1149746.0 13318.0
515772.0 1153583.0 13283.0
520355.0 1155841.0 13347.0
520706.0 1156043.0 13263.0
524896.0 1158154.0 13391.0
506667.0 1149633.0 13282.0
507771.0 1150150.0 13245.0
515168.0 1153609.0 13303.0
516337.0 1154192.0 13390.0
526840.0 1159366.0 13304.0
506852.0 1150089.0 13429.0
521361.0 1156914.0 13333.0
526590.0 1159528.0 13289.0
526991.0 1159696.0 13302.0
518225.0 1155706.0 13358.0
521622.0 1157386.0 13397.0
522400.0 1158144.0 13362.0
524639.0 1159273.0 13430.0
527297.0 1160560.0 13329.0
511842.0 1153509.0 13411.0
513122.0 1154000.0 13299.0
513495.0 1154184.0 13301.0
515878.0 1155321.0 13298.0
522581.0 1158564.0 13274.0
513400.0 1154512.0 13340.0
519831.0 1157566.0 13360.0
520210.0 1157744.0 13295.0
522864.0 1159078.0 13293.0
523669.0 1159507.0 13349.0
512151.0 1154318.0 13244.0
522752.0 1159339.0 13283.0
523043.0 1159487.0 13302.0
512168.0 1154585.0 13273.0
513309.0 1155117.0 13241.0
512089.0 1155174.0 13332.0
517671.0 1157786.0 13368.0
511437.0 1155161.0 13398.0
511857.0 1155344.0 13343.0
517715.0 1158034.0 13256.0
507540.0 1155762.0 13386.0
520030.0 1161750.0 13251.0
513388.0 1159729.0 13303.0
516744.0 1161395.0 13417.0
509854.0 1159320.0 13415.0
511522.0 1160300.0 13409.0
510239.0 1161219.0 13269.0
510400.0 1161547.0 13339.0
510700.0 1161771.0 13281.0
525342.0 1160789.0 13366.0
524657.0 1158231.0 13322.0
524437.0 1156943.0 13346.0
524092.0 1159218.0 13403.0
523590.0 1160096.0 13327.0
521596.0 1154920.0 13412.0
521407.0 1161738.0 13326.0
521150.0 1156283.0 13329.0
520973.0 1155314.0 13406.0
520833.0 1161521.0 13278.0
520588.0 1156210.0 13257.0
520376.0 1157728.0 13358.0
520340.0 1155962.0 13251.0
520342.0 1161939.0 13364.0
520242.0 1161755.0 13355.0
520147.0 1157635.0 13367.0
519917.0 1157535.0 13429.0
519671.0 1157500.0 13379.0
518398.0 1156590.0 13275.0
518254.0 1157255.0 13435.0
518263.0 1156675.0 13359.0
518041.0 1157544.0 13291.0
517193.0 1153724.0 13262.0
516876.0 1153469.0 13385.0
516600.0 1153492.0 13255.0
516482.0 1153796.0 13419.0
516526.0 1161601.0 13429.0
516241.0 1154035.0 13285.0
516078.0 1153652.0 13350.0
515272.0 1153406.0 13297.0
513699.0 1159779.0 13401.0
513400.0 1153504.0 13248.0
513283.0 1154704.0 13297.0
512965.0 1154433.0 13380.0
512973.0 1153705.0 13298.0
512652.0 1143550.0 13344.0
512786.0 1153990.0 13364.0
512019.0 1142645.0 13364.0
511680.0 1153204.0 13278.0
511442.0 1143658.0 13359.0
511689.0 1157342.0 13286.0
511697.0 1160098.0 13280.0
511621.0 1157428.0 13345.0
511165.0 1146074.0 13289.0
511097.0 1143653.0 13286.0
511071.0 1143007.0 13283.0
511570.0 1160019.0 13386.0
511415.0 1157178.0 13361.0
511332.0 1155001.0 13398.0
510900.0 1145400.0 13336.0
510908.0 1154543.0 13427.0
510378.0 1142974.0 13390.0
510435.0 1161633.0 13396.0
510238.0 1161252.0 13256.0
509431.0 1141557.0 13403.0
509511.0 1158984.0 13273.0
507980.0 1150973.0 13300.0
507488.0 1141200.0 13261.0
507583.0 1140616.0 13406.0
507726.0 1150056.0 13289.0
507363.0 1141382.0 13307.0
507402.0 1149586.0 13382.0
507058.0 1141250.0 13269.0
507184.0 1149609.0 13256.0
507059.0 1149770.0 13283.0
506919.0 1149665.0 13272.0
506611.0 1141904.0 13335.0
506843.0 1149940.0 13386.0
506463.0 1141989.0 13302.0
506302.0 1148596.0 13266.0
506475.0 1159407.0 13330.0
506357.0 1159422.0 13415.0
506078.0 1159953.0 13355.0
510683.0 1161930.0 13267.0
510642.0 1161727.0 13268.0
510234.0 1161349.0 13345.0
510468.0 1161448.0 13254.0
510071.0 1160770.0 13278.0
509695.0 1159363.0 13281.0
506316.0 1155480.0 13358.0
506345.0 1155446.0 13313.0
513757.0 1159811.0 13304.0
516763.0 1161566.0 13336.0
511252.0 1157161.0 13355.0
511889.0 1157248.0 13253.0
519782.0 1161880.0 13395.0
520327.0 1161839.0 13263.0
512075.0 1155386.0 13369.0
511652.0 1155079.0 13271.0
521503.0 1161850.0 13302.0
511852.0 1154943.0 13402.0
517643.0 1157841.0 13290.0
513315.0 1154827.0 13270.0
508030.0 1151014.0 13297.0
507637.0 1150679.0 13262.0
512965.0 1154374.0 13313.0
508242.0 1151023.0 13313.0
506987.0 1150016.0 13357.0
506581.0 1149676.0 13427.0
517853.0 1157690.0 13277.0
512834.0 1154124.0 13307.0
507225.0 1150091.0 13254.0
506777.0 1149702.0 13363.0
517864.0 1157515.0 13367.0
507006.0 1149798.0 13288.0
506579.0 1149442.0 13395.0
517929.0 1157427.0 13389.0
512848.0 1153880.0 13257.0
507260.0 1149791.0 13365.0
506857.0 1149474.0 13373.0
506446.0 1149171.0 13415.0
506746.0 1149200.0 13387.0
506259.0 1148849.0 13378.0
513798.0 1153974.0 13346.0
506287.0 1148632.0 13300.0
523309.0 1160213.0 13329.0
519941.0 1157938.0 13408.0
519514.0 1157636.0 13314.0
517422.0 1156242.0 13305.0
516118.0 1155322.0 13250.0
513194.0 1153256.0 13284.0
523801.0 1160276.0 13298.0
520206.0 1157776.0 13352.0
525213.0 1160817.0 13406.0
525288.0 1160671.0 13262.0
518332.0 1155871.0 13372.0
515369.0 1153801.0 13380.0
523558.0 1159360.0 13252.0
522279.0 1158356.0 13391.0
515425.0 1153676.0 13260.0
523887.0 1159255.0 13426.0
524016.0 1159171.0 13341.0
523149.0 1158671.0 13405.0
516074.0 1153720.0 13397.0
524362.0 1159219.0 13420.0
521586.0 1157418.0 13304.0
516110.0 1153662.0 13304.0
524609.0 1159176.0 13379.0
521682.0 1157182.0 13410.0
515655.0 1153123.0 13401.0
525008.0 1159299.0 13359.0
521297.0 1156759.0 13311.0
516674.0 1153592.0 13368.0
524058.0 1158428.0 13323.0
521307.0 1156557.0 13288.0
520881.0 1156262.0 13268.0
520438.0 1155976.0 13262.0
516845.0 1153500.0 13403.0
521142.0 1156188.0 13359.0
520702.0 1155934.0 13324.0
516898.0 1153355.0 13324.0
526818.0 1159667.0 13276.0
521057.0 1155862.0 13364.0
524696.0 1158008.0 13363.0
524871.0 1157896.0 13289.0
521097.0 1155341.0 13318.0
506354.0 1144861.0 13430.0
521497.0 1155098.0 13243.0
510767.0 1145613.0 13367.0
512003.0 1146274.0 13382.0
506347.0 1142024.0 13249.0
507405.0 1141199.0 13308.0
510570.0 1143176.0 13334.0
507615.0 1141096.0 13338.0
507741.0 1140931.0 13302.0
511838.0 1143475.0 13433.0
507913.0 1140788.0 13344.0
511974.0 1142987.0 13299.0
511486.0 1142456.0 13246.0
506132.0 1141515.0 13209.0
506334.0 1142019.0 13116.0
506935.0 1141650.0 13159.0
507330.0 1141192.0 13153.0
507122.0 1149697.0 13129.0
507420.0 1149946.0 13092.0
507320.0 1150348.0 13183.0
507599.0 1150004.0 13205.0
507760.0 1150361.0 13117.0
507893.0 1150376.0 13199.0
507834.0 1150795.0 13232.0
507140.0 1155284.0 13075.0
509645.0 1140292.0 13089.0
506552.0 1159981.0 13046.0
509850.0 1140745.0 13123.0
509173.0 1145348.0 13226.0
507527.0 1155644.0 13168.0
510606.0 1141999.0 13233.0
510554.0 1142542.0 13181.0
511013.0 1141999.0 13061.0
511305.0 1141918.0 13124.0
511289.0 1143589.0 13154.0
511713.0 1142573.0 13124.0
509176.0 1159385.0 13157.0
511949.0 1142581.0 13055.0
511910.0 1143032.0 13094.0
509507.0 1159113.0 13065.0
512050.0 1143184.0 13200.0
511728.0 1146200.0 13050.0
509714.0 1159106.0 13115.0
509644.0 1159561.0 13191.0
511843.0 1146705.0 13160.0
510550.0 1155488.0 13038.0
509706.0 1160887.0 13077.0
512395.0 1144362.0 13101.0
509891.0 1160937.0 13142.0
512718.0 1143188.0 13119.0
510069.0 1161129.0 13163.0
510295.0 1161147.0 13212.0
511802.0 1157254.0 13214.0
513369.0 1153108.0 13146.0
513268.0 1153537.0 13116.0
513118.0 1154477.0 13134.0
513394.0 1154691.0 13236.0
513301.0 1155190.0 13217.0
513719.0 1154535.0 13192.0
514032.0 1154677.0 13087.0
515450.0 1153359.0 13090.0
515703.0 1153087.0 13181.0
515637.0 1153612.0 13145.0
515955.0 1153449.0 13173.0
515891.0 1153936.0 13208.0
516149.0 1153689.0 13229.0
515904.0 1155562.0 13203.0
516241.0 1154653.0 13122.0
516961.0 1154243.0 13090.0
517254.0 1155963.0 13053.0
517947.0 1154483.0 13136.0
517530.0 1158051.0 13052.0
517785.0 1158269.0 13162.0
518128.0 1158002.0 13202.0
518954.0 1157098.0 13061.0
520240.0 1156055.0 13158.0
520773.0 1156687.0 13050.0
520039.0 1161810.0 13206.0
520993.0 1156574.0 13210.0
521472.0 1155535.0 13049.0
521232.0 1157036.0 13150.0
521206.0 1157500.0 13042.0
521712.0 1155379.0 13205.0
521677.0 1155947.0 13067.0
521448.0 1157434.0 13226.0
522130.0 1154510.0 13073.0
521145.0 1161876.0 13151.0
522333.0 1154387.0 13220.0
522118.0 1156350.0 13133.0
522691.0 1156025.0 13149.0
522611.0 1156561.0 13170.0
522963.0 1155246.0 13231.0
522585.0 1158640.0 13229.0
523154.0 1156385.0 13199.0
522867.0 1158995.0 13193.0
522836.0 1159519.0 13065.0
523266.0 1156869.0 13102.0
522932.0 1159564.0 13117.0
522860.0 1161711.0 13181.0
524106.0 1155799.0 13071.0
524366.0 1156463.0 13188.0
523857.0 1160800.0 13089.0
524258.0 1160443.0 13046.0
524189.0 1160936.0 13057.0
524427.0 1161552.0 13138.0
525151.0 1160628.0 13053.0
525292.0 1161567.0 13159.0
525599.0 1160552.0 13111.0
525745.0 1161743.0 13231.0
525982.0 1161718.0 13179.0
526332.0 1161453.0 13071.0
526830.0 1159610.0 13187.0
526642.0 1161691.0 13047.0
509717.0 1140151.0 13088.0
509503.0 1140272.0 13079.0
510945.0 1141062.0 13228.0
509949.0 1140773.0 13233.0
510114.0 1141654.0 13060.0
510452.0 1141863.0 13158.0
512098.0 1143039.0 13208.0
511885.0 1143216.0 13118.0
507073.0 1141281.0 13085.0
511110.0 1143200.0 13080.0
506915.0 1141514.0 13177.0
511256.0 1143479.0 13047.0
512339.0 1144150.0 13237.0
512261.0 1144299.0 13116.0
509912.0 1143471.0 13232.0
509838.0 1143594.0 13039.0
510143.0 1144068.0 13165.0
511364.0 1146111.0 13038.0
522663.0 1154474.0 13062.0
522856.0 1155147.0 13063.0
523994.0 1155780.0 13172.0
524210.0 1156118.0 13108.0
521743.0 1155214.0 13222.0
524338.0 1156498.0 13167.0
521385.0 1155321.0 13154.0
521700.0 1155493.0 13165.0
524154.0 1156655.0 13094.0
522536.0 1156157.0 13147.0
522885.0 1156356.0 13217.0
524096.0 1156900.0 13141.0
515948.0 1153135.0 13089.0
521542.0 1155937.0 13163.0
522339.0 1156295.0 13087.0
522709.0 1156504.0 13178.0
515410.0 1153197.0 13232.0
516190.0 1153475.0 13107.0
516997.0 1153914.0 13142.0
521452.0 1156057.0 13122.0
522246.0 1156454.0 13055.0
514626.0 1153076.0 13133.0
515395.0 1153381.0 13148.0
516132.0 1153705.0 13101.0
518017.0 1154676.0 13177.0
507071.0 1149767.0 13180.0
507426.0 1149951.0 13163.0
515589.0 1153703.0 13073.0
520082.0 1155913.0 13154.0
520445.0 1156106.0 13182.0
520794.0 1156293.0 13192.0
507292.0 1150205.0 13224.0
507705.0 1150385.0 13237.0
514722.0 1153617.0 13172.0
516221.0 1154389.0 13229.0
520249.0 1156246.0 13105.0
521024.0 1156692.0 13230.0
513416.0 1153321.0 13096.0
514543.0 1153821.0 13119.0
526640.0 1159734.0 13050.0
513190.0 1153561.0 13078.0
513551.0 1153734.0 13185.0
517630.0 1155716.0 13149.0
521328.0 1157527.0 13200.0
513897.0 1154313.0 13144.0
519841.0 1157130.0 13089.0
525782.0 1160089.0 13127.0
513017.0 1154255.0 13161.0
520643.0 1157879.0 13066.0
527168.0 1161155.0 13107.0
511827.0 1154022.0 13044.0
513320.0 1154775.0 13208.0
525803.0 1160757.0 13117.0
522880.0 1159634.0 13225.0
513235.0 1155328.0 13136.0
517377.0 1157284.0 13084.0
526130.0 1161668.0 13209.0
523639.0 1160622.0 13114.0
523997.0 1160800.0 13083.0
525890.0 1161709.0 13158.0
510705.0 1154710.0 13141.0
523602.0 1160834.0 13043.0
524780.0 1161510.0 13209.0
517577.0 1158185.0 13068.0
524354.0 1161469.0 13068.0
522751.0 1161746.0 13191.0
507170.0 1155222.0 13047.0
507513.0 1155392.0 13055.0
521126.0 1161702.0 13228.0
507211.0 1155489.0 13217.0
520823.0 1161809.0 13184.0
521230.0 1161991.0 13176.0
513767.0 1159810.0 13052.0
509539.0 1159028.0 13075.0
509405.0 1159234.0 13123.0
509718.0 1159438.0 13226.0
511935.0 1160350.0 13069.0
509355.0 1159426.0 13116.0
510300.0 1161009.0 13198.0
509887.0 1160989.0 13128.0
510769.0 1161966.0 13210.0
526991.0 1160581.0 13137.0
525861.0 1161639.0 13144.0
525264.0 1161527.0 13045.0
525321.0 1160193.0 13055.0
525127.0 1161540.0 13097.0
525145.0 1160459.0 13072.0
524179.0 1156617.0 13053.0
523964.0 1155723.0 13053.0
523527.0 1160754.0 13123.0
523260.0 1156354.0 13205.0
522999.0 1159630.0 13081.0
522998.0 1156373.0 13105.0
522844.0 1159180.0 13146.0
522780.0 1155888.0 13050.0
522644.0 1158658.0 13208.0
522608.0 1156292.0 13089.0
522524.0 1160076.0 13094.0
522484.0 1158783.0 13094.0
522452.0 1156177.0 13077.0
522296.0 1156186.0 13167.0
522225.0 1154288.0 13071.0
522090.0 1156332.0 13149.0
521894.0 1156335.0 13169.0
521664.0 1157454.0 13100.0
521656.0 1156162.0 13067.0
521590.0 1155560.0 13057.0
521483.0 1155479.0 13166.0
521284.0 1155849.0 13233.0
521074.0 1157594.0 13136.0
520889.0 1156498.0 13175.0
520704.0 1156199.0 13236.0
520517.0 1157631.0 13056.0
520305.0 1156523.0 13045.0
520211.0 1157930.0 13234.0
520196.0 1155944.0 13210.0
518770.0 1156467.0 13051.0
518173.0 1157892.0 13107.0
517968.0 1158208.0 13053.0
517835.0 1157899.0 13187.0
517664.0 1158034.0 13163.0
517476.0 1158392.0 13042.0
517397.0 1157732.0 13072.0
517391.0 1157049.0 13084.0
517344.0 1157876.0 13181.0
516123.0 1153377.0 13086.0
515933.0 1152948.0 13050.0
515831.0 1154017.0 13085.0
515823.0 1152808.0 13175.0
515688.0 1153238.0 13215.0
515461.0 1152993.0 13152.0
514784.0 1153523.0 13074.0
513761.0 1159796.0 13075.0
513445.0 1154858.0 13168.0
513386.0 1154200.0 13166.0
513403.0 1152841.0 13210.0
513259.0 1155353.0 13202.0
513197.0 1153973.0 13102.0
513223.0 1153292.0 13229.0
513081.0 1154256.0 13115.0
513060.0 1153654.0 13188.0
512240.0 1144135.0 13218.0
512288.0 1155399.0 13052.0
511757.0 1146588.0 13076.0
511771.0 1153517.0 13104.0
511465.0 1142437.0 13179.0
511841.0 1160354.0 13141.0
511521.0 1156814.0 13196.0
510836.0 1144713.0 13170.0
510588.0 1141070.0 13092.0
510496.0 1148952.0 13043.0
510568.0 1146916.0 13180.0
510504.0 1155712.0 13041.0
510127.0 1145577.0 13180.0
509601.0 1145532.0 13219.0
509981.0 1160868.0 13088.0
509844.0 1160886.0 13128.0
509199.0 1159274.0 13084.0
507909.0 1140897.0 13205.0
507768.0 1150764.0 13212.0
507332.0 1140754.0 13061.0
507598.0 1150633.0 13197.0
507538.0 1149985.0 13163.0
507225.0 1141143.0 13233.0
507416.0 1150310.0 13226.0
510914.0 1161869.0 13173.0
509988.0 1161084.0 13139.0
509476.0 1160744.0 13154.0
510631.0 1161522.0 13152.0
510220.0 1161165.0 13187.0
510036.0 1160946.0 13107.0
509654.0 1159548.0 13191.0
509239.0 1159230.0 13171.0
509324.0 1159041.0 13193.0
509390.0 1158811.0 13236.0
511882.0 1160485.0 13106.0
507469.0 1155868.0 13184.0
511500.0 1156958.0 13212.0
511685.0 1156857.0 13167.0
510487.0 1155689.0 13052.0
512221.0 1155352.0 13067.0
512234.0 1154613.0 13208.0
517370.0 1158008.0 13121.0
512267.0 1154426.0 13162.0
507606.0 1150974.0 13176.0
518000.0 1158173.0 13151.0
518009.0 1158003.0 13123.0
517190.0 1157427.0 13087.0
513360.0 1154701.0 13222.0
511704.0 1153535.0 13145.0
507771.0 1150749.0 13141.0
507397.0 1150365.0 13223.0
518254.0 1158001.0 13082.0
513274.0 1154494.0 13103.0
511845.0 1153488.0 13121.0
507652.0 1150503.0 13069.0
518231.0 1157921.0 13065.0
517362.0 1157317.0 13053.0
513490.0 1154557.0 13136.0
513075.0 1154226.0 13203.0
511768.0 1153305.0 13172.0
507421.0 1150133.0 13212.0
518294.0 1157787.0 13064.0
513641.0 1154523.0 13070.0
513255.0 1154228.0 13045.0
507654.0 1150209.0 13126.0
513240.0 1154019.0 13115.0
507643.0 1150000.0 13091.0
507202.0 1149617.0 13222.0
525341.0 1161676.0 13206.0
524945.0 1161386.0 13142.0
526033.0 1161790.0 13144.0
514679.0 1153982.0 13187.0
513337.0 1153116.0 13173.0
524259.0 1160315.0 13103.0
522981.0 1159457.0 13106.0
520463.0 1157737.0 13149.0
518728.0 1156585.0 13064.0
522776.0 1159066.0 13130.0
526706.0 1161468.0 13066.0
525296.0 1160535.0 13051.0
522658.0 1158734.0 13169.0
522532.0 1158489.0 13224.0
518303.0 1155609.0 13141.0
516181.0 1154074.0 13208.0
515336.0 1153553.0 13140.0
518446.0 1155642.0 13051.0
515584.0 1153491.0 13228.0
515633.0 1153355.0 13236.0
516449.0 1153721.0 13228.0
516062.0 1153458.0 13221.0
520802.0 1156567.0 13102.0
515855.0 1152943.0 13057.0
525269.0 1159055.0 13201.0
521910.0 1156814.0 13139.0
521858.0 1156488.0 13092.0
526886.0 1159543.0 13098.0
522380.0 1156605.0 13058.0
521949.0 1156277.0 13138.0
521508.0 1155998.0 13055.0
522779.0 1156535.0 13139.0
521479.0 1155674.0 13139.0
522893.0 1156382.0 13165.0
521442.0 1155254.0 13143.0
523158.0 1156264.0 13123.0
522733.0 1156000.0 13057.0
524176.0 1156792.0 13045.0
522924.0 1155963.0 13057.0
524407.0 1156742.0 13209.0
524245.0 1156476.0 13083.0
510984.0 1146082.0 13169.0
510606.0 1145721.0 13091.0
510219.0 1144082.0 13193.0
506710.0 1141675.0 13058.0
507077.0 1141551.0 13153.0
511352.0 1143763.0 13221.0
511998.0 1143404.0 13225.0
509894.0 1141935.0 13107.0
511938.0 1143063.0 13113.0
510660.0 1142138.0 13052.0
510524.0 1141681.0 13046.0
511258.0 1142057.0 13182.0
510818.0 1141760.0 13191.0
506150.0 1142000.0 12893.0
506491.0 1141571.0 12917.0
507108.0 1141263.0 12984.0
506126.0 1160383.0 12999.0
509447.0 1140325.0 13026.0
509663.0 1140814.0 12853.0
507329.0 1155775.0 12988.0
509783.0 1141760.0 12918.0
510086.0 1141658.0 12991.0
509838.0 1143545.0 13021.0
510343.0 1141951.0 13026.0
510313.0 1142451.0 12846.0
510188.0 1143453.0 12875.0
510884.0 1140522.0 12993.0
510171.0 1145612.0 13016.0
510624.0 1144774.0 12931.0
510535.0 1145765.0 12915.0
510408.0 1146697.0 12917.0
510072.0 1148975.0 12838.0
511178.0 1143453.0 12871.0
511447.0 1143121.0 12973.0
511700.0 1143070.0 12976.0
511545.0 1144433.0 12868.0
511684.0 1146717.0 12950.0
510518.0 1155257.0 12863.0
509644.0 1160053.0 12951.0
509589.0 1160546.0 12879.0
512251.0 1144434.0 12921.0
509815.0 1160456.0 12904.0
512597.0 1142877.0 12955.0
512605.0 1143374.0 12852.0
512234.0 1145835.0 12960.0
512125.0 1146310.0 13034.0
510756.0 1155690.0 12931.0
510012.0 1160473.0 12895.0
512788.0 1145183.0 12948.0
511834.0 1153846.0 12986.0
512545.0 1155015.0 12936.0
512414.0 1155452.0 13000.0
513946.0 1154041.0 12870.0
514173.0 1154187.0 12954.0
514845.0 1153280.0 13018.0
515141.0 1153345.0 13036.0
515431.0 1153844.0 12904.0
515918.0 1154475.0 12929.0
516218.0 1154224.0 12922.0
516128.0 1154653.0 12855.0
516221.0 1155701.0 12932.0
516834.0 1154217.0 12953.0
516802.0 1156348.0 12916.0
517084.0 1155841.0 12847.0
517459.0 1154519.0 12979.0
517130.0 1157384.0 12842.0
517654.0 1155483.0 12946.0
517381.0 1156977.0 13034.0
517333.0 1157501.0 12965.0
518205.0 1155461.0 12958.0
517810.0 1158747.0 12858.0
518615.0 1157788.0 12873.0
519110.0 1156611.0 12882.0
519806.0 1156529.0 12910.0
520241.0 1156560.0 12972.0
520525.0 1156745.0 12948.0
520749.0 1157208.0 12956.0
520619.0 1158237.0 12865.0
520637.0 1160240.0 12923.0
521016.0 1159435.0 13003.0
520944.0 1159910.0 12946.0
521716.0 1156437.0 12961.0
521377.0 1158984.0 12912.0
521941.0 1156649.0 12957.0
521629.0 1158716.0 12960.0
522151.0 1156871.0 12942.0
522426.0 1156460.0 13032.0
522889.0 1154433.0 13026.0
522780.0 1155479.0 12973.0
522877.0 1157192.0 12865.0
522531.0 1160091.0 12936.0
523732.0 1155978.0 12896.0
523603.0 1156423.0 12958.0
523055.0 1160772.0 12987.0
523878.0 1155911.0 12960.0
523577.0 1158451.0 12846.0
524042.0 1156832.0 12983.0
524195.0 1161459.0 12902.0
524890.0 1158412.0 12922.0
524598.0 1161047.0 12904.0
524926.0 1160761.0 12980.0
525513.0 1160486.0 12932.0
525860.0 1160188.0 12888.0
526016.0 1160131.0 12928.0
526540.0 1159800.0 13009.0
526722.0 1161170.0 13014.0
527088.0 1161133.0 13020.0
509643.0 1140491.0 12847.0
509669.0 1140779.0 12909.0
511918.0 1142570.0 12981.0
509833.0 1141752.0 12880.0
510557.0 1142167.0 13017.0
512560.0 1143144.0 12959.0
510358.0 1142428.0 12942.0
510119.0 1142946.0 12934.0
510903.0 1143326.0 12932.0
510355.0 1143314.0 12997.0
510748.0 1143465.0 12917.0
512645.0 1144439.0 13033.0
512170.0 1144453.0 12943.0
512547.0 1144611.0 12950.0
512914.0 1144781.0 12968.0
506233.0 1141876.0 13014.0
511407.0 1144305.0 12926.0
512254.0 1144652.0 12851.0
510758.0 1144632.0 13023.0
512092.0 1145864.0 13032.0
511822.0 1146022.0 12988.0
512161.0 1146112.0 12930.0
510173.0 1145587.0 13031.0
510580.0 1145740.0 12921.0
508984.0 1145365.0 13029.0
509316.0 1145456.0 13019.0
510493.0 1146839.0 12984.0
522937.0 1154358.0 12975.0
522046.0 1154365.0 12920.0
522772.0 1155335.0 12993.0
523871.0 1155881.0 12961.0
523710.0 1156063.0 12880.0
522607.0 1155834.0 13031.0
510073.0 1150050.0 12932.0
516062.0 1152969.0 12947.0
521471.0 1155524.0 12907.0
523899.0 1157010.0 12936.0
522288.0 1156677.0 12990.0
514116.0 1152986.0 12875.0
517870.0 1154709.0 12841.0
521941.0 1156783.0 13018.0
513963.0 1153127.0 12901.0
515532.0 1153893.0 12857.0
520621.0 1156452.0 13013.0
507559.0 1150482.0 12939.0
519858.0 1156343.0 12973.0
520220.0 1156532.0 12975.0
520596.0 1156715.0 12966.0
525105.0 1158967.0 12986.0
514302.0 1154043.0 13020.0
519171.0 1156348.0 12894.0
520631.0 1157041.0 12903.0
520971.0 1157275.0 13027.0
521747.0 1157566.0 12920.0
526275.0 1159877.0 12852.0
517108.0 1155782.0 12889.0
511599.0 1153493.0 13006.0
513799.0 1154488.0 12893.0
514188.0 1154767.0 13025.0
517188.0 1156186.0 13015.0
525631.0 1160244.0 12857.0
526803.0 1160935.0 12982.0
516742.0 1156272.0 12911.0
520471.0 1158104.0 12998.0
521657.0 1158661.0 12921.0
525064.0 1160395.0 12953.0
526565.0 1161107.0 12931.0
526923.0 1161295.0 12967.0
517315.0 1156924.0 12997.0
521348.0 1158824.0 12891.0
524906.0 1160652.0 13032.0
526499.0 1161384.0 12972.0
518521.0 1157767.0 12934.0
522689.0 1159842.0 13016.0
524591.0 1160783.0 12993.0
526540.0 1161743.0 13020.0
512510.0 1155222.0 12884.0
513264.0 1155544.0 12876.0
517018.0 1157268.0 12843.0
517314.0 1157501.0 12973.0
522548.0 1160028.0 12985.0
524393.0 1160932.0 12977.0
524785.0 1161091.0 12883.0
511119.0 1154827.0 12883.0
512288.0 1155420.0 13013.0
512672.0 1155528.0 12878.0
517308.0 1157736.0 12905.0
520881.0 1159437.0 12873.0
524425.0 1161218.0 12966.0
512279.0 1155640.0 12928.0
522884.0 1160700.0 12919.0
523257.0 1160912.0 12989.0
524754.0 1161588.0 12954.0
517666.0 1158446.0 12995.0
520688.0 1159863.0 12859.0
510886.0 1155482.0 12866.0
517593.0 1158617.0 12849.0
510521.0 1155574.0 12885.0
506964.0 1155546.0 12841.0
520830.0 1161985.0 12910.0
520013.0 1161906.0 13003.0
506802.0 1159073.0 13031.0
509922.0 1160348.0 12910.0
509577.0 1160808.0 12964.0
506977.0 1160525.0 12838.0
507043.0 1160881.0 12963.0
527006.0 1160555.0 12895.0
526832.0 1159303.0 12944.0
526626.0 1161694.0 12943.0
526480.0 1161561.0 12973.0
526112.0 1161584.0 12914.0
525619.0 1161597.0 13006.0
525563.0 1160404.0 12906.0
525401.0 1160314.0 12885.0
525048.0 1161003.0 12930.0
524880.0 1161237.0 12908.0
524917.0 1160630.0 13013.0
524727.0 1160782.0 12969.0
524543.0 1161160.0 12931.0
524365.0 1161392.0 13023.0
524375.0 1160798.0 12992.0
524188.0 1155971.0 13035.0
523963.0 1161008.0 12984.0
524004.0 1156882.0 13004.0
523723.0 1158358.0 12945.0
522959.0 1160912.0 12909.0
522977.0 1155739.0 13027.0
522721.0 1159848.0 12891.0
522612.0 1155757.0 13017.0
522039.0 1156935.0 12964.0
521980.0 1154596.0 12891.0
521638.0 1154227.0 12921.0
520991.0 1159609.0 12904.0
520887.0 1161947.0 12856.0
520868.0 1159533.0 12887.0
520806.0 1157092.0 12948.0
520578.0 1156856.0 12900.0
520507.0 1160338.0 12856.0
520459.0 1158268.0 12995.0
520449.0 1156938.0 12940.0
518738.0 1157744.0 12881.0
518334.0 1157942.0 13001.0
518164.0 1160998.0 12928.0
517884.0 1154850.0 12940.0
517569.0 1158657.0 12859.0
517537.0 1155553.0 12997.0
517347.0 1155672.0 13007.0
517244.0 1157190.0 13008.0
517167.0 1155816.0 12976.0
517136.0 1155125.0 12938.0
517098.0 1157296.0 13025.0
516832.0 1156145.0 12988.0
516261.0 1154378.0 12870.0
516221.0 1153230.0 12866.0
515925.0 1154349.0 12950.0
515627.0 1153933.0 13025.0
515410.0 1153731.0 13020.0
514140.0 1154689.0 12997.0
513706.0 1154088.0 12915.0
513525.0 1155360.0 12885.0
513571.0 1154714.0 13023.0
513346.0 1155544.0 12861.0
512663.0 1155448.0 12878.0
512415.0 1146250.0 13034.0
512484.0 1155239.0 12963.0
511918.0 1145907.0 12917.0
512001.0 1154989.0 12910.0
511779.0 1154155.0 12895.0
511511.0 1146046.0 12989.0
511459.0 1144241.0 12954.0
511936.0 1160316.0 13031.0
511657.0 1153922.0 13031.0
511288.0 1144339.0 12915.0
511303.0 1142998.0 13022.0
511176.0 1143139.0 13034.0
510833.0 1146085.0 12964.0
510683.0 1141989.0 12903.0
510598.0 1141745.0 12995.0
510456.0 1141941.0 12945.0
510771.0 1155966.0 12868.0
510428.0 1155075.0 12861.0
510110.0 1148729.0 12844.0
510033.0 1143106.0 12957.0
510256.0 1154921.0 12926.0
509759.0 1141729.0 12915.0
509517.0 1140284.0 12969.0
509217.0 1145499.0 12956.0
509046.0 1140617.0 12917.0
509574.0 1158854.0 12918.0
508998.0 1145481.0 12883.0
509461.0 1160509.0 12838.0
507079.0 1141674.0 12951.0
506900.0 1141855.0 12967.0
507048.0 1155961.0 12957.0
506964.0 1155247.0 12942.0
507148.0 1160726.0 12908.0
506906.0 1155981.0 12980.0
506066.0 1141231.0 12962.0
506937.0 1160366.0 12974.0
506206.0 1155426.0 12933.0
506029.0 1155610.0 12849.0
506021.0 1160004.0 12968.0
506876.0 1160481.0 12895.0
507006.0 1159009.0 12959.0
509761.0 1160837.0 13027.0
509574.0 1160656.0 12945.0
506276.0 1155432.0 12978.0
510895.0 1156066.0 12906.0
518089.0 1161057.0 12852.0
510437.0 1155004.0 12874.0
521017.0 1161923.0 12882.0
511149.0 1154916.0 13030.0
512459.0 1155331.0 12920.0
517493.0 1158727.0 12839.0
511864.0 1154691.0 12934.0
517695.0 1158645.0 12840.0
511772.0 1154383.0 12939.0
520557.0 1160314.0 12909.0
517777.0 1158404.0 12972.0
511765.0 1154179.0 12872.0
517169.0 1157657.0 13020.0
511857.0 1153996.0 12858.0
511508.0 1153692.0 13024.0
520849.0 1160104.0 12874.0
520903.0 1159987.0 12860.0
517312.0 1157440.0 13015.0
513677.0 1154856.0 13008.0
520805.0 1159718.0 12933.0
507755.0 1150563.0 12978.0
522923.0 1160955.0 12877.0
520827.0 1159564.0 12934.0
517358.0 1157244.0 12874.0
522826.0 1160800.0 12854.0
520986.0 1159533.0 12874.0
517330.0 1157001.0 12971.0
514159.0 1154740.0 12968.0
513691.0 1154377.0 13023.0
512688.0 1153801.0 12904.0
523649.0 1160940.0 13025.0
516736.0 1156289.0 12887.0
514156.0 1154456.0 12977.0
513285.0 1153834.0 13025.0
524460.0 1161216.0 12926.0
524084.0 1160895.0 13018.0
507516.0 1149337.0 12985.0
525543.0 1161542.0 12918.0
525071.0 1161310.0 12844.0
524633.0 1160989.0 12926.0
522864.0 1159762.0 12971.0
526309.0 1161713.0 12987.0
526437.0 1161565.0 12924.0
518987.0 1156549.0 12889.0
517779.0 1155673.0 13018.0
517413.0 1155434.0 13011.0
516083.0 1154531.0 12896.0
518995.0 1156351.0 12912.0
517636.0 1155418.0 12916.0
525507.0 1160503.0 13020.0
519091.0 1156266.0 12842.0
517859.0 1155385.0 12892.0
515690.0 1153870.0 13027.0
520997.0 1157345.0 13003.0
516767.0 1154534.0 12848.0
520613.0 1156954.0 12898.0
527026.0 1161016.0 12843.0
520722.0 1156737.0 13008.0
520278.0 1156495.0 12928.0
527003.0 1160711.0 12944.0
522399.0 1157700.0 12867.0
520335.0 1156325.0 13013.0
517899.0 1154655.0 12878.0
516191.0 1153416.0 12938.0
509797.0 1148927.0 12879.0
524840.0 1159018.0 13034.0
522600.0 1157588.0 12926.0
516253.0 1153342.0 12860.0
526506.0 1159939.0 12861.0
526880.0 1159419.0 12885.0
522316.0 1156303.0 13007.0
522413.0 1156156.0 12933.0
521575.0 1155612.0 13019.0
524040.0 1157087.0 12906.0
522960.0 1155635.0 13028.0
510413.0 1146835.0 12965.0
524151.0 1155927.0 12995.0
522255.0 1154275.0 13022.0
511719.0 1146870.0 12969.0
511777.0 1146803.0 12991.0
511766.0 1146660.0 12968.0
512263.0 1146322.0 12924.0
511838.0 1146065.0 12877.0
506327.0 1141774.0 13002.0
511621.0 1144292.0 12944.0
510355.0 1143382.0 12936.0
507076.0 1140980.0 12910.0
511292.0 1143313.0 12915.0
510240.0 1142363.0 12866.0
510464.0 1142245.0 12989.0
511438.0 1142790.0 12936.0
512658.0 1143400.0 13013.0
510600.0 1141965.0 12976.0
510934.0 1141997.0 13011.0
509096.0 1140559.0 13035.0
510898.0 1141686.0 13032.0
509145.0 1140550.0 12895.0
506308.0 1155497.0 12756.0
509504.0 1140823.0 12671.0
508746.0 1146293.0 12641.0
506476.0 1160081.0 12681.0
508923.0 1146267.0 12708.0
506813.0 1159594.0 12692.0
507669.0 1156122.0 12638.0
507006.0 1159484.0 12797.0
506793.0 1160894.0 12747.0
510122.0 1142117.0 12784.0
510574.0 1143613.0 12722.0
510444.0 1144607.0 12674.0
511091.0 1144475.0 12705.0
508785.0 1159421.0 12643.0
511361.0 1144078.0 12821.0
508951.0 1159747.0 12762.0
508903.0 1160228.0 12665.0
508778.0 1160692.0 12818.0
511352.0 1146281.0 12746.0
511172.0 1147210.0 12770.0
509168.0 1160323.0 12680.0
511569.0 1146521.0 12652.0
509436.0 1160128.0 12738.0
509361.0 1160577.0 12797.0
509310.0 1161016.0 12689.0
512048.0 1144655.0 12767.0
512448.0 1143412.0 12705.0
510817.0 1155103.0 12726.0
510638.0 1155976.0 12680.0
510987.0 1155229.0 12652.0
511715.0 1153955.0 12753.0
511897.0 1154344.0 12657.0
513093.0 1153830.0 12718.0
513005.0 1154349.0 12718.0
513410.0 1155718.0 12735.0
514095.0 1153078.0 12793.0
514608.0 1153372.0 12827.0
513683.0 1159927.0 12772.0
516141.0 1152982.0 12811.0
515742.0 1156039.0 12638.0
516421.0 1153230.0 12663.0
516142.0 1155133.0 12656.0
516768.0 1154029.0 12661.0
516650.0 1154477.0 12677.0
516625.0 1156594.0 12752.0
516817.0 1156849.0 12728.0
517443.0 1153800.0 12643.0
516981.0 1156936.0 12717.0
517796.0 1155000.0 12708.0
517956.0 1155480.0 12778.0
517536.0 1158573.0 12837.0
519048.0 1157525.0 12691.0
519713.0 1156074.0 12751.0
518985.0 1161747.0 12652.0
519148.0 1161755.0 12678.0
519356.0 1161620.0 12787.0
520647.0 1158731.0 12662.0
520493.0 1159752.0 12695.0
520401.0 1160275.0 12777.0
522004.0 1154339.0 12763.0
522307.0 1154026.0 12718.0
522197.0 1157365.0 12670.0
522381.0 1157470.0 12656.0
523631.0 1156916.0 12719.0
523869.0 1156441.0 12780.0
523823.0 1156940.0 12686.0
524049.0 1157379.0 12741.0
524194.0 1158910.0 12818.0
524104.0 1159866.0 12829.0
524391.0 1159943.0 12818.0
524945.0 1161262.0 12823.0
525287.0 1161222.0 12683.0
525681.0 1159976.0 12646.0
525670.0 1161047.0 12721.0
525847.0 1161248.0 12650.0
526336.0 1159869.0 12822.0
526187.0 1161284.0 12746.0
526847.0 1160639.0 12799.0
510657.0 1140245.0 12832.0
509937.0 1140390.0 12812.0
509324.0 1140507.0 12680.0
509552.0 1140939.0 12716.0
509759.0 1141383.0 12791.0
512731.0 1142874.0 12747.0
510180.0 1141950.0 12771.0
511768.0 1142677.0 12771.0
510049.0 1142172.0 12672.0
511580.0 1142954.0 12726.0
512311.0 1143317.0 12713.0
512643.0 1143511.0 12780.0
507375.0 1141512.0 12693.0
510020.0 1143079.0 12802.0
506235.0 1141499.0 12690.0
510321.0 1143491.0 12831.0
509511.0 1143309.0 12646.0
510252.0 1143659.0 12669.0
512669.0 1144840.0 12683.0
509448.0 1143534.0 12649.0
511321.0 1144462.0 12723.0
510371.0 1144598.0 12647.0
511802.0 1146210.0 12655.0
509737.0 1145546.0 12786.0
511621.0 1146478.0 12782.0
508315.0 1145682.0 12652.0
508731.0 1146148.0 12704.0
509052.0 1146321.0 12803.0
511289.0 1147343.0 12727.0
508912.0 1146468.0 12765.0
522231.0 1153908.0 12786.0
509291.0 1147914.0 12708.0
509631.0 1148344.0 12775.0
