526380.0 1063469.0 22597.0
527380.0 1063518.0 22520.0
527691.0 1065205.0 22445.0
525948.0 1062748.0 22557.0
526426.0 1063152.0 22440.0
527379.0 1063908.0 22475.0
525970.0 1063032.0 22501.0
526242.0 1063984.0 22575.0
527659.0 1065155.0 22573.0
523474.0 1063001.0 22514.0
520361.0 1064433.0 22533.0
520341.0 1064563.0 22511.0
520403.0 1064828.0 22549.0
520301.0 1064892.0 22442.0
516198.0 1062148.0 22617.0
520471.0 1065328.0 22590.0
514245.0 1063100.0 22479.0
527764.0 1064264.0 22630.0
527288.0 1063859.0 22469.0
523570.0 1063034.0 22477.0
519741.0 1065089.0 22530.0
514258.0 1062946.0 22620.0
519686.0 1065128.0 22562.0
520383.0 1065198.0 22524.0
515333.0 1062763.0 22611.0
516222.0 1062261.0 22624.0
520676.0 1063701.0 22556.0
520804.0 1063516.0 22537.0
521323.0 1063240.0 22586.0
523502.0 1063140.0 22617.0
527749.0 1064247.0 22635.0
526067.0 1062421.0 22522.0
514304.0 1063193.0 22384.0
514579.0 1063341.0 22251.0
517662.0 1063781.0 22346.0
518259.0 1062209.0 22239.0
520298.0 1064513.0 22432.0
520699.0 1063209.0 22249.0
522279.0 1062017.0 22320.0
523289.0 1063087.0 22244.0
525827.0 1062328.0 22332.0
526239.0 1063624.0 22433.0
527631.0 1065131.0 22349.0
527512.0 1063530.0 22379.0
526050.0 1062078.0 22375.0
527504.0 1063647.0 22408.0
527374.0 1064094.0 22307.0
523301.0 1062981.0 22314.0
520869.0 1063071.0 22386.0
520702.0 1063120.0 22256.0
520249.0 1064062.0 22308.0
520141.0 1064929.0 22274.0
517913.0 1063822.0 22259.0
520946.0 1066106.0 22248.0
519776.0 1065501.0 22282.0
519638.0 1065611.0 22304.0
514741.0 1063127.0 22346.0
527447.0 1063882.0 22271.0
526426.0 1064151.0 22286.0
525843.0 1063004.0 22433.0
525699.0 1062028.0 22244.0
523251.0 1062850.0 22288.0
521030.0 1066487.0 22299.0
520851.0 1063260.0 22434.0
519928.0 1064875.0 22330.0
517530.0 1063793.0 22348.0
516894.0 1064020.0 22369.0
514673.0 1063083.0 22319.0
521063.0 1066404.0 22287.0
519617.0 1065603.0 22398.0
516942.0 1064083.0 22412.0
514601.0 1063088.0 22260.0
520717.0 1063318.0 22352.0
520951.0 1063160.0 22386.0
524796.0 1064397.0 22397.0
527584.0 1065371.0 22430.0
525860.0 1063685.0 22415.0
527027.0 1063970.0 22397.0
525904.0 1063497.0 22323.0
527393.0 1063907.0 22403.0
527648.0 1063857.0 22354.0
527264.0 1063694.0 22336.0
525793.0 1062089.0 22297.0
517155.0 1063200.0 22068.0
517521.0 1063532.0 22045.0
517714.0 1062186.0 22125.0
520165.0 1064783.0 22222.0
521994.0 1062120.0 22106.0
522141.0 1062152.0 22186.0
523022.0 1062800.0 22096.0
526055.0 1063741.0 22085.0
526089.0 1063512.0 22191.0
527173.0 1063867.0 22142.0
527536.0 1064879.0 22087.0
526481.0 1062005.0 22082.0
525833.0 1062070.0 22087.0
526095.0 1063319.0 22122.0
526052.0 1063480.0 22134.0
525968.0 1063682.0 22084.0
527688.0 1065181.0 22065.0
521937.0 1062083.0 22109.0
520011.0 1064165.0 22128.0
520061.0 1064361.0 22131.0
521203.0 1065525.0 22217.0
517642.0 1063336.0 22154.0
521134.0 1066392.0 22205.0
517316.0 1063837.0 22145.0
526080.0 1062610.0 22208.0
525889.0 1062018.0 22216.0
522336.0 1062099.0 22120.0
521072.0 1065655.0 22214.0
520314.0 1065525.0 22054.0
519958.0 1064383.0 22193.0
518512.0 1062771.0 22069.0
518258.0 1062216.0 22214.0
517740.0 1063642.0 22071.0
517258.0 1063743.0 22140.0
516968.0 1063965.0 22068.0
517246.0 1062161.0 22051.0
514389.0 1063266.0 22142.0
514352.0 1063331.0 22099.0
514580.0 1063259.0 22171.0
520983.0 1066202.0 22223.0
519941.0 1065630.0 22213.0
520026.0 1065444.0 22210.0
521067.0 1065673.0 22162.0
519971.0 1065131.0 22144.0
517592.0 1063687.0 22136.0
519999.0 1064269.0 22227.0
517357.0 1062105.0 22095.0
518310.0 1062266.0 22153.0
524340.0 1064854.0 22117.0
520821.0 1062944.0 22110.0
524428.0 1064362.0 22132.0
526528.0 1064135.0 22131.0
526193.0 1063938.0 22194.0
523081.0 1062645.0 22077.0
526447.0 1062491.0 22138.0
517188.0 1064264.0 21929.0
517265.0 1063916.0 22013.0
521521.0 1062423.0 21956.0
521750.0 1062279.0 21840.0
522368.0 1062465.0 21933.0
522508.0 1062700.0 21841.0
522598.0 1062629.0 21930.0
522792.0 1062695.0 21988.0
527075.0 1063859.0 21925.0
527554.0 1065063.0 22022.0
527085.0 1063955.0 21997.0
525958.0 1063449.0 22037.0
525015.0 1063922.0 21933.0
522414.0 1062433.0 21939.0
522871.0 1062787.0 21977.0
518599.0 1062416.0 21952.0
519987.0 1063994.0 21886.0
521010.0 1065017.0 21868.0
519995.0 1064956.0 21977.0
517557.0 1063382.0 21952.0
517330.0 1063452.0 21873.0
527628.0 1064739.0 21910.0
526101.0 1063496.0 21885.0
526350.0 1062118.0 22014.0
524704.0 1064296.0 21895.0
525005.0 1062954.0 21851.0
522456.0 1062546.0 21884.0
522205.0 1062505.0 21844.0
521523.0 1062423.0 21997.0
520714.0 1062758.0 21913.0
516976.0 1063024.0 21841.0
516946.0 1062982.0 21979.0
520411.0 1065676.0 22016.0
518354.0 1064427.0 21974.0
517216.0 1063830.0 22031.0
520170.0 1065015.0 21998.0
519905.0 1064726.0 21912.0
517584.0 1063478.0 21948.0
518465.0 1062647.0 21925.0
520789.0 1062727.0 21907.0
527466.0 1065173.0 21964.0
527572.0 1064986.0 21875.0
522795.0 1062800.0 21935.0
521645.0 1062300.0 21896.0
521276.0 1062128.0 21912.0
522685.0 1062536.0 21950.0
526587.0 1063981.0 21970.0
526112.0 1063535.0 21993.0
525745.0 1063337.0 22030.0
525349.0 1063195.0 21924.0
526104.0 1063318.0 21901.0
526404.0 1062313.0 21853.0
516873.0 1064048.0 21665.0
517043.0 1064223.0 21695.0
518678.0 1062563.0 21710.0
521764.0 1065836.0 21834.0
524375.0 1064883.0 21721.0
524517.0 1064757.0 21738.0
524554.0 1064711.0 21740.0
524842.0 1064207.0 21713.0
525005.0 1063820.0 21767.0
525530.0 1062970.0 21646.0
527594.0 1065196.0 21642.0
526573.0 1062235.0 21750.0
526959.0 1063646.0 21833.0
525572.0 1062999.0 21650.0
527302.0 1064715.0 21763.0
524898.0 1063959.0 21734.0
521883.0 1062270.0 21727.0
522326.0 1062604.0 21825.0
524401.0 1064826.0 21740.0
520548.0 1062523.0 21735.0
520780.0 1064014.0 21783.0
518444.0 1062462.0 21837.0
518318.0 1062503.0 21728.0
518332.0 1062664.0 21642.0
521540.0 1065348.0 21689.0
521763.0 1065720.0 21659.0
517176.0 1063019.0 21731.0
520356.0 1065682.0 21835.0
518396.0 1064359.0 21685.0
527492.0 1065180.0 21688.0
526535.0 1063874.0 21775.0
526303.0 1063687.0 21812.0
526519.0 1062250.0 21694.0
526036.0 1063053.0 21653.0
525735.0 1063407.0 21657.0
525181.0 1062612.0 21700.0
521905.0 1062250.0 21717.0
521775.0 1062354.0 21821.0
520661.0 1065667.0 21656.0
520447.0 1065696.0 21641.0
520032.0 1064889.0 21781.0
520417.0 1062547.0 21710.0
519760.0 1063185.0 21771.0
518585.0 1064445.0 21723.0
518413.0 1064258.0 21813.0
516991.0 1064134.0 21703.0
522146.0 1066350.0 21829.0
520632.0 1065636.0 21640.0
519804.0 1064890.0 21693.0
517623.0 1063341.0 21723.0
524479.0 1064791.0 21779.0
524543.0 1064313.0 21648.0
527106.0 1065072.0 21786.0
522440.0 1062634.0 21794.0
524218.0 1063299.0 21667.0
522300.0 1062415.0 21826.0
521945.0 1062235.0 21680.0
526895.0 1063921.0 21754.0
524983.0 1063098.0 21767.0
526501.0 1062209.0 21724.0
518096.0 1062481.0 21523.0
518149.0 1063155.0 21487.0
518292.0 1062648.0 21615.0
518810.0 1063181.0 21509.0
520336.0 1062425.0 21445.0
520479.0 1062471.0 21581.0
520657.0 1062234.0 21618.0
520893.0 1065301.0 21447.0
522108.0 1066125.0 21489.0
522800.0 1066428.0 21503.0
524702.0 1064545.0 21440.0
524763.0 1064546.0 21475.0
525224.0 1062764.0 21465.0
525964.0 1062262.0 21540.0
525980.0 1063068.0 21599.0
527117.0 1064811.0 21474.0
527262.0 1064724.0 21614.0
527521.0 1065265.0 21588.0
526312.0 1062265.0 21529.0
526564.0 1063182.0 21541.0
526705.0 1063673.0 21623.0
526553.0 1063649.0 21474.0
527204.0 1064730.0 21603.0
527650.0 1065155.0 21604.0
527124.0 1064830.0 21497.0
527575.0 1065187.0 21589.0
526996.0 1064888.0 21469.0
527448.0 1065228.0 21544.0
524633.0 1064575.0 21452.0
520605.0 1062285.0 21634.0
520411.0 1062598.0 21600.0
520871.0 1064171.0 21490.0
520034.0 1064298.0 21471.0
520666.0 1065044.0 21525.0
520728.0 1065469.0 21461.0
517029.0 1063059.0 21443.0
518621.0 1064353.0 21607.0
527044.0 1064694.0 21479.0
526692.0 1063752.0 21533.0
525258.0 1062993.0 21565.0
525024.0 1063069.0 21469.0
522887.0 1066595.0 21572.0
522008.0 1066160.0 21507.0
521072.0 1065747.0 21535.0
520444.0 1065257.0 21571.0
520576.0 1062251.0 21529.0
519977.0 1064414.0 21501.0
517875.0 1063160.0 21463.0
517471.0 1062235.0 21565.0
521755.0 1066187.0 21623.0
521271.0 1065719.0 21440.0
520534.0 1065335.0 21513.0
518628.0 1064394.0 21630.0
518363.0 1063772.0 21543.0
519618.0 1063839.0 21478.0
520058.0 1063095.0 21493.0
526401.0 1065156.0 21486.0
524812.0 1064458.0 21516.0
520395.0 1062403.0 21561.0
524775.0 1064205.0 21480.0
527143.0 1064900.0 21582.0
525936.0 1064413.0 21456.0
524726.0 1063898.0 21438.0
527185.0 1064725.0 21499.0
521551.0 1062061.0 21629.0
526492.0 1063808.0 21595.0
526802.0 1063759.0 21562.0
525715.0 1063244.0 21445.0
525353.0 1063037.0 21608.0
526691.0 1062110.0 21517.0
517878.0 1062474.0 21353.0
517899.0 1063231.0 21359.0
518006.0 1062976.0 21377.0
518415.0 1063390.0 21389.0
520193.0 1062220.0 21245.0
521200.0 1065488.0 21270.0
522498.0 1066240.0 21403.0
524796.0 1063767.0 21337.0
525923.0 1063405.0 21386.0
526108.0 1062255.0 21397.0
526422.0 1065170.0 21294.0
526389.0 1063497.0 21382.0
526552.0 1065103.0 21377.0
525297.0 1062468.0 21361.0
525197.0 1062548.0 21295.0
525197.0 1062756.0 21263.0
524798.0 1064004.0 21346.0
520197.0 1062026.0 21239.0
520318.0 1062677.0 21256.0
520146.0 1062764.0 21342.0
521327.0 1064503.0 21414.0
519914.0 1064293.0 21409.0
521582.0 1065629.0 21265.0
518304.0 1063357.0 21323.0
521205.0 1065773.0 21328.0
527075.0 1063818.0 21297.0
526356.0 1065089.0 21357.0
526709.0 1062111.0 21423.0
526186.0 1063209.0 21305.0
524628.0 1064806.0 21277.0
524774.0 1064398.0 21357.0
524823.0 1063962.0 21422.0
524481.0 1064781.0 21268.0
524602.0 1063801.0 21278.0
522416.0 1066270.0 21402.0
522210.0 1066139.0 21416.0
521738.0 1065933.0 21347.0
521239.0 1065582.0 21266.0
520602.0 1065198.0 21327.0
520174.0 1062961.0 21413.0
520321.0 1062013.0 21333.0
519729.0 1063847.0 21295.0
519555.0 1063606.0 21436.0
518517.0 1063937.0 21339.0
518375.0 1063254.0 21354.0
518224.0 1063248.0 21415.0
518039.0 1063023.0 21385.0
517834.0 1062638.0 21253.0
516398.0 1063235.0 21375.0
522716.0 1066474.0 21383.0
522373.0 1066253.0 21367.0
521623.0 1065933.0 21424.0
520891.0 1065550.0 21404.0
518650.0 1064236.0 21424.0
520200.0 1064735.0 21367.0
519925.0 1064269.0 21426.0
519957.0 1064119.0 21276.0
517975.0 1063103.0 21423.0
520848.0 1064311.0 21347.0
518010.0 1062652.0 21363.0
524630.0 1064726.0 21410.0
526290.0 1064975.0 21320.0
527523.0 1064907.0 21402.0
524945.0 1062971.0 21394.0
525272.0 1062853.0 21429.0
525489.0 1062707.0 21255.0
526100.0 1062122.0 21390.0
517531.0 1063192.0 21203.0
517647.0 1062500.0 21103.0
520114.0 1062332.0 21199.0
520321.0 1062978.0 21099.0
520791.0 1065143.0 21211.0
524749.0 1063760.0 21222.0
525094.0 1062959.0 21189.0
526773.0 1064396.0 21075.0
526878.0 1063446.0 21093.0
525677.0 1063130.0 21174.0
526147.0 1063450.0 21118.0
524966.0 1062912.0 21076.0
526753.0 1064344.0 21087.0
526642.0 1064517.0 21046.0
526522.0 1064703.0 21057.0
526520.0 1064899.0 21038.0
524460.0 1063672.0 21185.0
524710.0 1064175.0 21216.0
524380.0 1064742.0 21100.0
524256.0 1064762.0 21061.0
520069.0 1062123.0 21130.0
520679.0 1064040.0 21078.0
519804.0 1063680.0 21052.0
517516.0 1062187.0 21048.0
520692.0 1065057.0 21200.0
521137.0 1065427.0 21228.0
521609.0 1065790.0 21172.0
518615.0 1063783.0 21038.0
516610.0 1063322.0 21088.0
526609.0 1064680.0 21053.0
526442.0 1064692.0 21120.0
526408.0 1063420.0 21213.0
524857.0 1064402.0 21193.0
522563.0 1066344.0 21234.0
521911.0 1065704.0 21107.0
521448.0 1065632.0 21194.0
521982.0 1062096.0 21223.0
520972.0 1065295.0 21118.0
520762.0 1065097.0 21048.0
520150.0 1064521.0 21117.0
517412.0 1063094.0 21043.0
517509.0 1062614.0 21087.0
517605.0 1062147.0 21088.0
517213.0 1063169.0 21201.0
516497.0 1063400.0 21063.0
521993.0 1066132.0 21172.0
521825.0 1065814.0 21195.0
521445.0 1065624.0 21205.0
521066.0 1065427.0 21199.0
516621.0 1063352.0 21064.0
522052.0 1065745.0 21117.0
521311.0 1065370.0 21174.0
518662.0 1064100.0 21111.0
517239.0 1063150.0 21050.0
517498.0 1063046.0 21082.0
520061.0 1063986.0 21216.0
519750.0 1063768.0 21212.0
517417.0 1062734.0 21038.0
519833.0 1063680.0 21069.0
517616.0 1062549.0 21130.0
517750.0 1062372.0 21191.0
524277.0 1064625.0 21131.0
526272.0 1064761.0 21098.0
525011.0 1064195.0 21107.0
526440.0 1063659.0 21217.0
527057.0 1063716.0 21230.0
526347.0 1063367.0 21236.0
517100.0 1063361.0 20915.0
517410.0 1062323.0 20977.0
517535.0 1062449.0 21017.0
520549.0 1063203.0 20841.0
526499.0 1064457.0 20933.0
526767.0 1063563.0 20993.0
529714.0 1062734.0 20981.0
526802.0 1063368.0 21016.0
525341.0 1062951.0 20858.0
526655.0 1064388.0 20988.0
526376.0 1064354.0 20865.0
526144.0 1064359.0 20908.0
520005.0 1062251.0 20996.0
517436.0 1062317.0 20997.0
520424.0 1064514.0 20945.0
517456.0 1062621.0 21033.0
516885.0 1063232.0 20958.0
517330.0 1063499.0 20886.0
517073.0 1063533.0 20853.0
516395.0 1063410.0 21005.0
526783.0 1063317.0 20926.0
526553.0 1063246.0 20983.0
525244.0 1062887.0 20883.0
520524.0 1064696.0 20935.0
520361.0 1064665.0 20987.0
518628.0 1063999.0 21006.0
518472.0 1063417.0 20972.0
517559.0 1063615.0 20874.0
517337.0 1063533.0 20881.0
516646.0 1063440.0 20967.0
521696.0 1065585.0 20952.0
520943.0 1065200.0 21035.0
520565.0 1065023.0 20943.0
517482.0 1063618.0 20856.0
516740.0 1063267.0 20940.0
520600.0 1064799.0 20883.0
520243.0 1064584.0 21029.0
520661.0 1064607.0 21011.0
520317.0 1064437.0 20861.0
520562.0 1064072.0 20986.0
517656.0 1062161.0 20990.0
524016.0 1064090.0 20866.0
526718.0 1064680.0 21024.0
524488.0 1063726.0 20848.0
526761.0 1064475.0 20952.0
526455.0 1064382.0 20847.0
524234.0 1063312.0 21007.0
524894.0 1062823.0 21036.0
526623.0 1063329.0 20983.0
516958.0 1063759.0 20734.0
517412.0 1064246.0 20785.0
524762.0 1063905.0 20774.0
524839.0 1064021.0 20767.0
524986.0 1064556.0 20648.0
525074.0 1064546.0 20640.0
526212.0 1064238.0 20666.0
526665.0 1064214.0 20786.0
529353.0 1062184.0 20702.0
529816.0 1062431.0 20701.0
529658.0 1062503.0 20698.0
528922.0 1062092.0 20782.0
525871.0 1063331.0 20826.0
526264.0 1064086.0 20690.0
519390.0 1063077.0 20644.0
520300.0 1063700.0 20663.0
520380.0 1063915.0 20693.0
520285.0 1064033.0 20742.0
521327.0 1065098.0 20653.0
517521.0 1063841.0 20759.0
516910.0 1063670.0 20754.0
517366.0 1063988.0 20689.0
516815.0 1063840.0 20641.0
516283.0 1063781.0 20643.0
529577.0 1062632.0 20818.0
526560.0 1064204.0 20646.0
526356.0 1064178.0 20645.0
525681.0 1065043.0 20695.0
524915.0 1064353.0 20649.0
524782.0 1063924.0 20774.0
524322.0 1064220.0 20640.0
524506.0 1063339.0 20720.0
521099.0 1065074.0 20703.0
520332.0 1064177.0 20739.0
520121.0 1063580.0 20709.0
519880.0 1063451.0 20785.0
519617.0 1063320.0 20816.0
519360.0 1063159.0 20804.0
518824.0 1064612.0 20651.0
518577.0 1063514.0 20722.0
518672.0 1063087.0 20647.0
517422.0 1064097.0 20682.0
516996.0 1063664.0 20772.0
516723.0 1063658.0 20751.0
516281.0 1063882.0 20645.0
516097.0 1063734.0 20740.0
518879.0 1064858.0 20658.0
517368.0 1064158.0 20654.0
517376.0 1063909.0 20716.0
516997.0 1063639.0 20778.0
517076.0 1063507.0 20777.0
520925.0 1065027.0 20830.0
520418.0 1064313.0 20666.0
518567.0 1063399.0 20764.0
520203.0 1063919.0 20829.0
520096.0 1063632.0 20741.0
519922.0 1063364.0 20704.0
519538.0 1063175.0 20748.0
524260.0 1063944.0 20706.0
524799.0 1063951.0 20786.0
526699.0 1064285.0 20702.0
525585.0 1063182.0 20694.0
525059.0 1062681.0 20821.0
516205.0 1064026.0 20467.0
516378.0 1064039.0 20484.0
516417.0 1065380.0 20572.0
516612.0 1065102.0 20629.0
517070.0 1065100.0 20600.0
517248.0 1064758.0 20612.0
520378.0 1062971.0 20501.0
520683.0 1064001.0 20556.0
524233.0 1064133.0 20625.0
525007.0 1064689.0 20608.0
525078.0 1065291.0 20494.0
526001.0 1063654.0 20441.0
526029.0 1064362.0 20495.0
526442.0 1063847.0 20504.0
526566.0 1063709.0 20558.0
529310.0 1062274.0 20629.0
529419.0 1062426.0 20601.0
529041.0 1062223.0 20446.0
529550.0 1062649.0 20604.0
529527.0 1062734.0 20464.0
527177.0 1063748.0 20472.0
526702.0 1063627.0 20468.0
525478.0 1063111.0 20594.0
525923.0 1063494.0 20583.0
526443.0 1063773.0 20483.0
526309.0 1063910.0 20555.0
526007.0 1063835.0 20443.0
525934.0 1064449.0 20453.0
525676.0 1064930.0 20464.0
524201.0 1064096.0 20585.0
525146.0 1064820.0 20447.0
520582.0 1063577.0 20520.0
519027.0 1062641.0 20479.0
519918.0 1063284.0 20482.0
518782.0 1063137.0 20587.0
518497.0 1063715.0 20515.0
518869.0 1064740.0 20558.0
516251.0 1063960.0 20504.0
517165.0 1064669.0 20603.0
516075.0 1064016.0 20488.0
517060.0 1064958.0 20590.0
516800.0 1064913.0 20516.0
516929.0 1065146.0 20528.0
516693.0 1065150.0 20500.0
529236.0 1062379.0 20506.0
526156.0 1064577.0 20586.0
526079.0 1064270.0 20534.0
526043.0 1063814.0 20460.0
525718.0 1064573.0 20507.0
525670.0 1063470.0 20560.0
525638.0 1062980.0 20490.0
525060.0 1064691.0 20440.0
525389.0 1062934.0 20527.0
524811.0 1064784.0 20461.0
524606.0 1063465.0 20507.0
522136.0 1066229.0 20629.0
521303.0 1065123.0 20578.0
520339.0 1063659.0 20533.0
520381.0 1063258.0 20592.0
520109.0 1063151.0 20515.0
519073.0 1062687.0 20465.0
518672.0 1064324.0 20493.0
518858.0 1062824.0 20481.0
518942.0 1062368.0 20506.0
517306.0 1064595.0 20574.0
516718.0 1065133.0 20520.0
516463.0 1065138.0 20521.0
516572.0 1064123.0 20496.0
516250.0 1065314.0 20548.0
516466.0 1063878.0 20622.0
516088.0 1064853.0 20444.0
515967.0 1064189.0 20505.0
510364.0 1063372.0 20460.0
516249.0 1065139.0 20586.0
516986.0 1065128.0 20505.0
516627.0 1064927.0 20552.0
516992.0 1064925.0 20488.0
516137.0 1064243.0 20495.0
517397.0 1064493.0 20613.0
516581.0 1064210.0 20449.0
516215.0 1064014.0 20537.0
516568.0 1063872.0 20567.0
518660.0 1064060.0 20465.0
521385.0 1065114.0 20509.0
518644.0 1063780.0 20540.0
518661.0 1063271.0 20615.0
518837.0 1063159.0 20520.0
520270.0 1063579.0 20636.0
518724.0 1062864.0 20491.0
520223.0 1063286.0 20498.0
519435.0 1062912.0 20514.0
519043.0 1062757.0 20479.0
524911.0 1065191.0 20451.0
525720.0 1065007.0 20538.0
524998.0 1064732.0 20442.0
525733.0 1064766.0 20454.0
525889.0 1064553.0 20438.0
525967.0 1064320.0 20453.0
524532.0 1063572.0 20610.0
526348.0 1064166.0 20604.0
526631.0 1064066.0 20472.0
525980.0 1063706.0 20532.0
526600.0 1063805.0 20472.0
525838.0 1063494.0 20443.0
527302.0 1063765.0 20477.0
516481.0 1064704.0 20283.0
516665.0 1064363.0 20346.0
516855.0 1064187.0 20435.0
518590.0 1063835.0 20428.0
519181.0 1062496.0 20391.0
519435.0 1062419.0 20293.0
520127.0 1062702.0 20361.0
524607.0 1063785.0 20324.0
525773.0 1063586.0 20241.0
528906.0 1062273.0 20329.0
529253.0 1062518.0 20417.0
529070.0 1062343.0 20357.0
525495.0 1063154.0 20422.0
525880.0 1063547.0 20437.0
525815.0 1063562.0 20318.0
525840.0 1063778.0 20278.0
525752.0 1064631.0 20406.0
525019.0 1064863.0 20399.0
520083.0 1062559.0 20293.0
519374.0 1062310.0 20298.0
520173.0 1063068.0 20310.0
519024.0 1062481.0 20416.0
519957.0 1063081.0 20342.0
518610.0 1063963.0 20423.0
516739.0 1064038.0 20410.0
516535.0 1064270.0 20239.0
516275.0 1064279.0 20345.0
516375.0 1064487.0 20302.0
516529.0 1064796.0 20396.0
516171.0 1064976.0 20424.0
516621.0 1065281.0 20420.0
528291.0 1062364.0 20262.0
527295.0 1063681.0 20376.0
527060.0 1063669.0 20417.0
526540.0 1063727.0 20397.0
525823.0 1064649.0 20338.0
525774.0 1063607.0 20398.0
525764.0 1063118.0 20242.0
524976.0 1065107.0 20415.0
522421.0 1062407.0 20335.0
520774.0 1064697.0 20277.0
520643.0 1064192.0 20433.0
519859.0 1062457.0 20300.0
519071.0 1062190.0 20270.0
518701.0 1063820.0 20436.0
516937.0 1064887.0 20413.0
516413.0 1064607.0 20252.0
516235.0 1064837.0 20393.0
510365.0 1063649.0 20239.0
516570.0 1065397.0 20404.0
516800.0 1065371.0 20262.0
516212.0 1064830.0 20346.0
518902.0 1064515.0 20379.0
521471.0 1065008.0 20358.0
520739.0 1064600.0 20361.0
519825.0 1063169.0 20268.0
520219.0 1063057.0 20382.0
519021.0 1062497.0 20381.0
525055.0 1065026.0 20397.0
519833.0 1062621.0 20350.0
519448.0 1062436.0 20361.0
519051.0 1062265.0 20318.0
519795.0 1062363.0 20267.0
526924.0 1063685.0 20397.0
529072.0 1062178.0 20403.0
510605.0 1063502.0 20193.0
525020.0 1062540.0 20132.0
525981.0 1062175.0 20104.0
528381.0 1062330.0 20183.0
528660.0 1062108.0 20174.0
528737.0 1062169.0 20187.0
528324.0 1062200.0 20126.0
525407.0 1063094.0 20121.0
525606.0 1063412.0 20091.0
519906.0 1062087.0 20124.0
519694.0 1062196.0 20117.0
519887.0 1062489.0 20108.0
520898.0 1064169.0 20168.0
520836.0 1064214.0 20202.0
518494.0 1064264.0 20178.0
516551.0 1065442.0 20122.0
524830.0 1063815.0 20092.0
521148.0 1064713.0 20059.0
520763.0 1064236.0 20137.0
519283.0 1062171.0 20226.0
516484.0 1064583.0 20118.0
521127.0 1064835.0 20158.0
520853.0 1064483.0 20096.0
520812.0 1064262.0 20086.0
519403.0 1062189.0 20223.0
519793.0 1062127.0 20110.0
524800.0 1063866.0 20230.0
524720.0 1063587.0 20198.0
524770.0 1063373.0 20085.0
522470.0 1062376.0 20083.0
525652.0 1063242.0 20064.0
525767.0 1062976.0 20189.0
528600.0 1062057.0 20147.0
525242.0 1063705.0 19846.0
525266.0 1062913.0 19849.0
525358.0 1062760.0 19854.0
525415.0 1063443.0 19871.0
525518.0 1062412.0 19962.0
525255.0 1062963.0 19857.0
525431.0 1063310.0 19873.0
510492.0 1063438.0 19975.0
525882.0 1062154.0 20031.0
525342.0 1063358.0 19939.0
525578.0 1062437.0 19919.0
524822.0 1063363.0 19943.0
520939.0 1064504.0 19960.0
520947.0 1064073.0 19892.0
509919.0 1063848.0 19879.0
521155.0 1064720.0 20020.0
520957.0 1064145.0 19902.0
525341.0 1063119.0 19967.0
524677.0 1062537.0 19985.0
510249.0 1063702.0 19698.0
521800.0 1062589.0 19674.0
524900.0 1062413.0 19762.0
524985.0 1063169.0 19689.0
525203.0 1062928.0 19770.0
525356.0 1063720.0 19817.0
528131.0 1062603.0 19641.0
528238.0 1062592.0 19682.0
528890.0 1062298.0 19771.0
528194.0 1062795.0 19645.0
525124.0 1062647.0 19817.0
524959.0 1062583.0 19735.0
524820.0 1062542.0 19749.0
525183.0 1063559.0 19794.0
521730.0 1062693.0 19714.0
521351.0 1063972.0 19794.0
510449.0 1063550.0 19745.0
524986.0 1063311.0 19727.0
524456.0 1062483.0 19658.0
524533.0 1062093.0 19833.0
521107.0 1064205.0 19749.0
510424.0 1063836.0 19712.0
521159.0 1064073.0 19762.0
522604.0 1062754.0 19814.0
525072.0 1063610.0 19824.0
525017.0 1063361.0 19701.0
524870.0 1063025.0 19656.0
524292.0 1062409.0 19789.0
525340.0 1062692.0 19686.0
525402.0 1062521.0 19755.0
528104.0 1062832.0 19731.0
527909.0 1062206.0 19646.0
510522.0 1063636.0 19560.0
521336.0 1064449.0 19510.0
522813.0 1063453.0 19531.0
524753.0 1062346.0 19438.0
525124.0 1063043.0 19619.0
525244.0 1063272.0 19493.0
527864.0 1062004.0 19465.0
524771.0 1062118.0 19625.0
524743.0 1062221.0 19567.0
526204.0 1063620.0 19583.0
525068.0 1062887.0 19630.0
524757.0 1062797.0 19441.0
521449.0 1065084.0 19490.0
521872.0 1062701.0 19547.0
521285.0 1064375.0 19472.0
510585.0 1063716.0 19567.0
509880.0 1064298.0 19445.0
510667.0 1064111.0 19535.0
510680.0 1063761.0 19611.0
521429.0 1065202.0 19620.0
521476.0 1065066.0 19467.0
521277.0 1064453.0 19505.0
528953.0 1062387.0 19558.0
510089.0 1064128.0 19397.0
510885.0 1062810.0 19312.0
516852.0 1064041.0 19264.0
521336.0 1062415.0 19245.0
521676.0 1062367.0 19402.0
522163.0 1063220.0 19332.0
522334.0 1063037.0 19328.0
522571.0 1062273.0 19407.0
522976.0 1062731.0 19417.0
528257.0 1062417.0 19352.0
528930.0 1062326.0 19379.0
528487.0 1062228.0 19383.0
524711.0 1062431.0 19351.0
524967.0 1062917.0 19430.0
522491.0 1062306.0 19342.0
522974.0 1062646.0 19309.0
521554.0 1062195.0 19256.0
522216.0 1062969.0 19331.0
522692.0 1063275.0 19246.0
521641.0 1062766.0 19323.0
522071.0 1063084.0 19317.0
521554.0 1062889.0 19244.0
510004.0 1063913.0 19303.0
528842.0 1062357.0 19398.0
524935.0 1062895.0 19338.0
522577.0 1063226.0 19301.0
522660.0 1062829.0 19334.0
521779.0 1065642.0 19398.0
521613.0 1065498.0 19374.0
521621.0 1065106.0 19358.0
521944.0 1062835.0 19262.0
521425.0 1064615.0 19365.0
521549.0 1062435.0 19304.0
509939.0 1064141.0 19383.0
510578.0 1063570.0 19303.0
521744.0 1065506.0 19275.0
521499.0 1064881.0 19361.0
521664.0 1062776.0 19279.0
524941.0 1062904.0 19384.0
509951.0 1064028.0 19104.0
510173.0 1063530.0 19154.0
516700.0 1064677.0 19084.0
516833.0 1062755.0 19179.0
517459.0 1062449.0 19183.0
520837.0 1062305.0 19190.0
521142.0 1062363.0 19156.0
521539.0 1062164.0 19171.0
521579.0 1062973.0 19138.0
521800.0 1063129.0 19197.0
522412.0 1062233.0 19039.0
522538.0 1062338.0 19148.0
522814.0 1062996.0 19109.0
522926.0 1062663.0 19202.0
523295.0 1062892.0 19115.0
523483.0 1063167.0 19045.0
524649.0 1062467.0 19058.0
524982.0 1063009.0 19081.0
528148.0 1062079.0 19179.0
526714.0 1064471.0 19065.0
523033.0 1062767.0 19137.0
523476.0 1063093.0 19045.0
521395.0 1062189.0 19123.0
521245.0 1062378.0 19167.0
521077.0 1062527.0 19143.0
521658.0 1063207.0 19103.0
517727.0 1062234.0 19124.0
517509.0 1062378.0 19155.0
517457.0 1062600.0 19196.0
517271.0 1062663.0 19113.0
516557.0 1063587.0 19195.0
516937.0 1063929.0 19221.0
516784.0 1063936.0 19123.0
516660.0 1064131.0 19038.0
523444.0 1062160.0 19046.0
523063.0 1062714.0 19080.0
523189.0 1062281.0 19221.0
522686.0 1063571.0 19083.0
522796.0 1063088.0 19152.0
522858.0 1062608.0 19117.0
522636.0 1062358.0 19056.0
522425.0 1062349.0 19086.0
522210.0 1062171.0 19064.0
521600.0 1064619.0 19074.0
521840.0 1063286.0 19124.0
521592.0 1063132.0 19147.0
521761.0 1062208.0 19182.0
521434.0 1062886.0 19206.0
521187.0 1062394.0 19161.0
520916.0 1062585.0 19139.0
520682.0 1062184.0 19096.0
520496.0 1062252.0 19171.0
517734.0 1062156.0 19157.0
517489.0 1062642.0 19150.0
517587.0 1062172.0 19216.0
516635.0 1063920.0 19086.0
516805.0 1062514.0 19038.0
510282.0 1063337.0 19129.0
510155.0 1063318.0 19212.0
517064.0 1063352.0 19042.0
521600.0 1064754.0 19120.0
517375.0 1062762.0 19086.0
521476.0 1064420.0 19204.0
517621.0 1062332.0 19124.0
517759.0 1062088.0 19216.0
522659.0 1063579.0 19107.0
521532.0 1063104.0 19080.0
522770.0 1063353.0 19111.0
521276.0 1062643.0 19189.0
520898.0 1062500.0 19126.0
521377.0 1062460.0 19200.0
520567.0 1062114.0 19108.0
526431.0 1064566.0 19074.0
522717.0 1062781.0 19225.0
521585.0 1062275.0 19197.0
522706.0 1062562.0 19108.0
522374.0 1062372.0 19077.0
521994.0 1062210.0 19202.0
521622.0 1062043.0 19120.0
523424.0 1062305.0 19140.0
524882.0 1062770.0 19096.0
510810.0 1063010.0 18845.0
510771.0 1064933.0 18873.0
516380.0 1066103.0 18945.0
516570.0 1064840.0 18874.0
516882.0 1062135.0 18941.0
517079.0 1062142.0 18945.0
521435.0 1063097.0 18964.0
522295.0 1062430.0 18936.0
522689.0 1063693.0 19024.0
522895.0 1063780.0 18971.0
523419.0 1062402.0 18976.0
525738.0 1063451.0 18957.0
526026.0 1063690.0 18894.0
526614.0 1064351.0 18872.0
528615.0 1062501.0 18937.0
528723.0 1062484.0 18863.0
526094.0 1063417.0 18906.0
524562.0 1062400.0 18920.0
525511.0 1063191.0 18907.0
526020.0 1063572.0 18937.0
524939.0 1062968.0 18889.0
525395.0 1063300.0 18922.0
526316.0 1064008.0 18859.0
526540.0 1064561.0 19005.0
522193.0 1062038.0 18989.0
522641.0 1062377.0 19013.0
520848.0 1062013.0 19008.0
520639.0 1062098.0 18955.0
522980.0 1063876.0 18906.0
521426.0 1063195.0 18972.0
517045.0 1062178.0 18962.0
516877.0 1062293.0 18926.0
517249.0 1063138.0 19019.0
516672.0 1063280.0 18915.0
517007.0 1064159.0 18876.0
516783.0 1064381.0 19031.0
516618.0 1064417.0 18970.0
516492.0 1064526.0 18923.0
516408.0 1064762.0 18881.0
516270.0 1065013.0 18933.0
510858.0 1062908.0 19021.0
510433.0 1063515.0 18992.0
510070.0 1063533.0 18888.0
510424.0 1063781.0 18947.0
509663.0 1063585.0 18995.0
510018.0 1064217.0 19014.0
510654.0 1064781.0 18864.0
526585.0 1064580.0 18947.0
526392.0 1064477.0 18926.0
525976.0 1064104.0 18906.0
526041.0 1063672.0 19030.0
525561.0 1063284.0 18863.0
525332.0 1063036.0 18892.0
525078.0 1062894.0 18912.0
523303.0 1063019.0 18999.0
522876.0 1063631.0 18957.0
522964.0 1063175.0 19008.0
517849.0 1062335.0 18863.0
516849.0 1063497.0 18838.0
516988.0 1063013.0 19031.0
517082.0 1062030.0 18946.0
516433.0 1064788.0 18996.0
516472.0 1064368.0 18856.0
516882.0 1062053.0 19019.0
516196.0 1064546.0 18913.0
516373.0 1063616.0 18962.0
515958.0 1065048.0 18991.0
516123.0 1063589.0 18982.0
510053.0 1063737.0 18846.0
510581.0 1064849.0 19008.0
510160.0 1063519.0 18951.0
516038.0 1065247.0 18978.0
516337.0 1064692.0 18882.0
516795.0 1064001.0 19024.0
516472.0 1063833.0 19024.0
516917.0 1063809.0 19012.0
516804.0 1063555.0 18882.0
521780.0 1064687.0 18983.0
521586.0 1064271.0 18974.0
518031.0 1062075.0 18840.0
523128.0 1063649.0 18864.0
522921.0 1063236.0 19033.0
523398.0 1063156.0 19037.0
523059.0 1063024.0 19031.0
526011.0 1064143.0 18859.0
523048.0 1062768.0 18979.0
525936.0 1063783.0 18893.0
522423.0 1062170.0 18976.0
525287.0 1063199.0 18942.0
525219.0 1063012.0 18861.0
524551.0 1062580.0 18965.0
528644.0 1062282.0 18994.0
510606.0 1063093.0 18682.0
510610.0 1064806.0 18785.0
515646.0 1063810.0 18766.0
516175.0 1064530.0 18663.0
516171.0 1065162.0 18746.0
516355.0 1064743.0 18825.0
516566.0 1063403.0 18801.0
517088.0 1064689.0 18640.0
517196.0 1064331.0 18728.0
521801.0 1064461.0 18753.0
525546.0 1063854.0 18638.0
525633.0 1063903.0 18745.0
525627.0 1063650.0 18832.0
525710.0 1063669.0 18826.0
528078.0 1062036.0 18754.0
529103.0 1062435.0 18791.0
528763.0 1062383.0 18776.0
526521.0 1063944.0 18808.0
524552.0 1062562.0 18783.0
525842.0 1063669.0 18772.0
526171.0 1064109.0 18659.0
517797.0 1062898.0 18769.0
516674.0 1062324.0 18785.0
516481.0 1063532.0 18786.0
516971.0 1064787.0 18694.0
516136.0 1065227.0 18666.0
516311.0 1065741.0 18690.0
511290.0 1063087.0 18699.0
510705.0 1063037.0 18767.0
511142.0 1063285.0 18647.0
510857.0 1064708.0 18797.0
528889.0 1062471.0 18834.0
526134.0 1064086.0 18799.0
526201.0 1063675.0 18834.0
526015.0 1063142.0 18676.0
525755.0 1063090.0 18691.0
524474.0 1062342.0 18640.0
524350.0 1062367.0 18832.0
521796.0 1064644.0 18720.0
517732.0 1062814.0 18754.0
517289.0 1064076.0 18723.0
517160.0 1064002.0 18806.0
516795.0 1064874.0 18655.0
517036.0 1063416.0 18738.0
516599.0 1064982.0 18789.0
516685.0 1064514.0 18761.0
516041.0 1065544.0 18733.0
516040.0 1065047.0 18705.0
515421.0 1063642.0 18794.0
511295.0 1063144.0 18829.0
510563.0 1064548.0 18652.0
510559.0 1062960.0 18754.0
509911.0 1063761.0 18825.0
509693.0 1063859.0 18662.0
510649.0 1064742.0 18698.0
509785.0 1063941.0 18800.0
516082.0 1066011.0 18821.0
516272.0 1065896.0 18676.0
516688.0 1064893.0 18744.0
516664.0 1064542.0 18832.0
516305.0 1064480.0 18681.0
516679.0 1064330.0 18802.0
515419.0 1063704.0 18715.0
517122.0 1064267.0 18771.0
515630.0 1063598.0 18685.0
517269.0 1064149.0 18641.0
516457.0 1063734.0 18732.0
516113.0 1063527.0 18793.0
517667.0 1063064.0 18673.0
517692.0 1062828.0 18758.0
523001.0 1063864.0 18830.0
526385.0 1064315.0 18813.0
526642.0 1064274.0 18645.0
526288.0 1064052.0 18728.0
526337.0 1063802.0 18780.0
525962.0 1063626.0 18753.0
525615.0 1063406.0 18829.0
525937.0 1063339.0 18765.0
525582.0 1063185.0 18820.0
524494.0 1062449.0 18758.0
529006.0 1062468.0 18769.0
510462.0 1064805.0 18461.0
511660.0 1063914.0 18445.0
512233.0 1062623.0 18446.0
512655.0 1062090.0 18588.0
512981.0 1062878.0 18511.0
512993.0 1063572.0 18539.0
515927.0 1062542.0 18488.0
516384.0 1063347.0 18586.0
521727.0 1064411.0 18595.0
524501.0 1062226.0 18634.0
525451.0 1063992.0 18505.0
528508.0 1062564.0 18567.0
529135.0 1062619.0 18550.0
529379.0 1062683.0 18444.0
528424.0 1062502.0 18459.0
521812.0 1064018.0 18492.0
517703.0 1063545.0 18508.0
515904.0 1062541.0 18476.0
516196.0 1063023.0 18489.0
517555.0 1064034.0 18541.0
517364.0 1064061.0 18491.0
516274.0 1063420.0 18481.0
512516.0 1062550.0 18473.0
511729.0 1062928.0 18443.0
512506.0 1063651.0 18439.0
511509.0 1063213.0 18442.0
511135.0 1063520.0 18574.0
509696.0 1063754.0 18475.0
509515.0 1063838.0 18602.0
529220.0 1062550.0 18457.0
528246.0 1062425.0 18450.0
528316.0 1062035.0 18634.0
526553.0 1064079.0 18607.0
526349.0 1063992.0 18633.0
526182.0 1063196.0 18513.0
525523.0 1064033.0 18519.0
525420.0 1063719.0 18630.0
517607.0 1063313.0 18580.0
516940.0 1064909.0 18456.0
516599.0 1063971.0 18466.0
516148.0 1065722.0 18506.0
516483.0 1063428.0 18595.0
516057.0 1062539.0 18569.0
515879.0 1062415.0 18472.0
511436.0 1063719.0 18535.0
511569.0 1062802.0 18558.0
510694.0 1064892.0 18582.0
510390.0 1063375.0 18527.0
510078.0 1063330.0 18555.0
510907.0 1064367.0 18463.0
509802.0 1063762.0 18592.0
510394.0 1063505.0 18549.0
511416.0 1063808.0 18488.0
511071.0 1063546.0 18629.0
515960.0 1065851.0 18558.0
511356.0 1063546.0 18477.0
516127.0 1065685.0 18606.0
511308.0 1063357.0 18439.0
510562.0 1062943.0 18627.0
515962.0 1065176.0 18532.0
516247.0 1065095.0 18587.0
517002.0 1064818.0 18530.0
512537.0 1062072.0 18572.0
517478.0 1064053.0 18460.0
516329.0 1063476.0 18453.0
516611.0 1063346.0 18605.0
516209.0 1063233.0 18452.0
517550.0 1063614.0 18440.0
525453.0 1063763.0 18555.0
526669.0 1064072.0 18471.0
524365.0 1062231.0 18461.0
527910.0 1062043.0 18511.0
528987.0 1062375.0 18481.0
509950.0 1063525.0 18391.0
510186.0 1063413.0 18370.0
510988.0 1064311.0 18367.0
511588.0 1063588.0 18358.0
511817.0 1062930.0 18432.0
512133.0 1062678.0 18372.0
512558.0 1062813.0 18297.0
512766.0 1062806.0 18319.0
512789.0 1063438.0 18358.0
515734.0 1062427.0 18388.0
516079.0 1065443.0 18386.0
516191.0 1063235.0 18426.0
516263.0 1065749.0 18330.0
517383.0 1065019.0 18369.0
517808.0 1063740.0 18409.0
524304.0 1062015.0 18338.0
529275.0 1062798.0 18379.0
524206.0 1062050.0 18291.0
525628.0 1064208.0 18341.0
517628.0 1063766.0 18434.0
515783.0 1062654.0 18363.0
516102.0 1063106.0 18405.0
516653.0 1063746.0 18430.0
516290.0 1063539.0 18319.0
516490.0 1063878.0 18401.0
512155.0 1062630.0 18404.0
516008.0 1065345.0 18336.0
511926.0 1062783.0 18393.0
512713.0 1063315.0 18328.0
516119.0 1065719.0 18303.0
511682.0 1063066.0 18407.0
511607.0 1063486.0 18353.0
511582.0 1063742.0 18364.0
511008.0 1064186.0 18321.0
528946.0 1062630.0 18348.0
521641.0 1064126.0 18326.0
517762.0 1063386.0 18436.0
517475.0 1063797.0 18410.0
516210.0 1065271.0 18428.0
516001.0 1063031.0 18410.0
512301.0 1062794.0 18251.0
511785.0 1063962.0 18324.0
511934.0 1062944.0 18261.0
511990.0 1062445.0 18247.0
511619.0 1063970.0 18372.0
511749.0 1062977.0 18396.0
511472.0 1063277.0 18385.0
510595.0 1063173.0 18314.0
510134.0 1063629.0 18406.0
510016.0 1063461.0 18315.0
511766.0 1064056.0 18284.0
510603.0 1063478.0 18276.0
510272.0 1063347.0 18347.0
511716.0 1063805.0 18334.0
510945.0 1063429.0 18359.0
510564.0 1063269.0 18305.0
511670.0 1063584.0 18321.0
516288.0 1065677.0 18309.0
512404.0 1063728.0 18289.0
511644.0 1063364.0 18317.0
516285.0 1065442.0 18347.0
512456.0 1063545.0 18261.0
511713.0 1063195.0 18294.0
515818.0 1065015.0 18290.0
512113.0 1063079.0 18340.0
511730.0 1062879.0 18430.0
512341.0 1062936.0 18300.0
511978.0 1062828.0 18248.0
512774.0 1062850.0 18273.0
517414.0 1063819.0 18425.0
517717.0 1063456.0 18427.0
515727.0 1062497.0 18374.0
521759.0 1064325.0 18369.0
522753.0 1062514.0 18434.0
524412.0 1062154.0 18294.0
511879.0 1063299.0 18102.0
512095.0 1063065.0 18039.0
512650.0 1063434.0 18156.0
515895.0 1064486.0 18094.0
515907.0 1065187.0 18198.0
517260.0 1064063.0 18143.0
517984.0 1064418.0 18038.0
518133.0 1064683.0 18097.0
528143.0 1062241.0 18139.0
524441.0 1062568.0 18082.0
517880.0 1064271.0 18111.0
518293.0 1064548.0 18076.0
517285.0 1064213.0 18192.0
514747.0 1063574.0 18122.0
512575.0 1062881.0 18186.0
512368.0 1062950.0 18038.0
512663.0 1063482.0 18170.0
510666.0 1063835.0 18114.0
528148.0 1062006.0 18159.0
517762.0 1064210.0 18079.0
517623.0 1063888.0 18121.0
515849.0 1066623.0 18071.0
515660.0 1066574.0 18124.0
516004.0 1063511.0 18043.0
512615.0 1063596.0 18098.0
512470.0 1063382.0 18203.0
512083.0 1062938.0 18231.0
512140.0 1062486.0 18196.0
511660.0 1063477.0 18221.0
510623.0 1064394.0 18144.0
510683.0 1063884.0 18204.0
510513.0 1063621.0 18187.0
510150.0 1062089.0 18041.0
515741.0 1066683.0 18063.0
512470.0 1063468.0 18039.0
510144.0 1062137.0 18203.0
514735.0 1063892.0 18126.0
514828.0 1063735.0 17846.0
515874.0 1066637.0 17944.0
515941.0 1066551.0 18026.0
516163.0 1066123.0 17996.0
526669.0 1064324.0 17997.0
528040.0 1062043.0 18022.0
526717.0 1064317.0 17931.0
518190.0 1064281.0 18021.0
518032.0 1064512.0 18002.0
515993.0 1063503.0 17946.0
517263.0 1064415.0 17914.0
515806.0 1063582.0 17922.0
516109.0 1065978.0 17934.0
516108.0 1066116.0 17912.0
516003.0 1066355.0 17881.0
515872.0 1066567.0 17941.0
510603.0 1064604.0 17958.0
524146.0 1062744.0 17884.0
523857.0 1062375.0 17894.0
518081.0 1064324.0 17886.0
516616.0 1065784.0 17929.0
515725.0 1063532.0 17882.0
515128.0 1063602.0 17968.0
514873.0 1063724.0 17993.0
512657.0 1062671.0 17965.0
512366.0 1062922.0 17902.0
511896.0 1063403.0 17866.0
511776.0 1063440.0 17985.0
510697.0 1063371.0 17944.0
510421.0 1064054.0 18035.0
509208.0 1063247.0 17890.0
510493.0 1064305.0 18014.0
515956.0 1066569.0 17896.0
511122.0 1064199.0 17842.0
509482.0 1063300.0 17921.0
509122.0 1063139.0 17940.0
516002.0 1066381.0 17903.0
516910.0 1065376.0 17851.0
517319.0 1064922.0 17998.0
514894.0 1063764.0 17929.0
515122.0 1063681.0 17851.0
524341.0 1062968.0 17934.0
509573.0 1063086.0 17720.0
510414.0 1064656.0 17812.0
510608.0 1062105.0 17791.0
510665.0 1063463.0 17799.0
510696.0 1064199.0 17655.0
512146.0 1063570.0 17687.0
512482.0 1063341.0 17770.0
512579.0 1063965.0 17691.0
515239.0 1064044.0 17732.0
515410.0 1063705.0 17794.0
516775.0 1066046.0 17650.0
517208.0 1064698.0 17730.0
524288.0 1062580.0 17777.0
527178.0 1062467.0 17674.0
527305.0 1062108.0 17738.0
528530.0 1062807.0 17834.0
528711.0 1062972.0 17736.0
529038.0 1063284.0 17655.0
529127.0 1063303.0 17714.0
528471.0 1062648.0 17813.0
526772.0 1064477.0 17772.0
524332.0 1062902.0 17728.0
517203.0 1064547.0 17807.0
517084.0 1064722.0 17708.0
515230.0 1063805.0 17781.0
514973.0 1063981.0 17752.0
516693.0 1065839.0 17681.0
512305.0 1063066.0 17758.0
512388.0 1063399.0 17723.0
512608.0 1063865.0 17719.0
528753.0 1062606.0 17826.0
526731.0 1064190.0 17784.0
526581.0 1062113.0 17684.0
517084.0 1064761.0 17642.0
516698.0 1066094.0 17692.0
516631.0 1065322.0 17746.0
516048.0 1066521.0 17688.0
515416.0 1063727.0 17790.0
512744.0 1063606.0 17837.0
512459.0 1063990.0 17684.0
511997.0 1063813.0 17713.0
512058.0 1063313.0 17688.0
510411.0 1064651.0 17782.0
511046.0 1064469.0 17690.0
510698.0 1064268.0 17793.0
510362.0 1064083.0 17751.0
509377.0 1063165.0 17656.0
512061.0 1064156.0 17793.0
512026.0 1063984.0 17740.0
510774.0 1063358.0 17796.0
516887.0 1065967.0 17748.0
513132.0 1064104.0 17697.0
517249.0 1065924.0 17669.0
512038.0 1063312.0 17767.0
509661.0 1062070.0 17707.0
516862.0 1065111.0 17729.0
515567.0 1063638.0 17770.0
515827.0 1063541.0 17804.0
518080.0 1064380.0 17807.0
523951.0 1062644.0 17651.0
510403.0 1062078.0 17549.0
510724.0 1062809.0 17456.0
510991.0 1064240.0 17581.0
512089.0 1063955.0 17566.0
512289.0 1063653.0 17596.0
512380.0 1063331.0 17510.0
513127.0 1064085.0 17481.0
513320.0 1064226.0 17619.0
517059.0 1064821.0 17617.0
524111.0 1062575.0 17495.0
524170.0 1062515.0 17637.0
526913.0 1062124.0 17581.0
527544.0 1062163.0 17498.0
528944.0 1063362.0 17522.0
528950.0 1063249.0 17636.0
528976.0 1062576.0 17613.0
529054.0 1062535.0 17620.0
528874.0 1063195.0 17626.0
527115.0 1062149.0 17574.0
526949.0 1062177.0 17508.0
526534.0 1062057.0 17573.0
516417.0 1063166.0 17479.0
516952.0 1064960.0 17637.0
512062.0 1062986.0 17473.0
513252.0 1063945.0 17477.0
510280.0 1062006.0 17449.0
513074.0 1064135.0 17526.0
509691.0 1062036.0 17458.0
512999.0 1064356.0 17599.0
509454.0 1062557.0 17634.0
510699.0 1063445.0 17611.0
509463.0 1062801.0 17567.0
509160.0 1062734.0 17447.0
511144.0 1064317.0 17585.0
510521.0 1064125.0 17511.0
526818.0 1062021.0 17604.0
526419.0 1062530.0 17512.0
519667.0 1062054.0 17471.0
517273.0 1064767.0 17596.0
516780.0 1065088.0 17538.0
513157.0 1063852.0 17462.0
512790.0 1064270.0 17555.0
512167.0 1063849.0 17552.0
510984.0 1064139.0 17503.0
510735.0 1064119.0 17493.0
509532.0 1062706.0 17474.0
510699.0 1064117.0 17476.0
510752.0 1063237.0 17524.0
512007.0 1063599.0 17628.0
513183.0 1064013.0 17444.0
512185.0 1063200.0 17515.0
517326.0 1064856.0 17494.0
516945.0 1064721.0 17474.0
526520.0 1062410.0 17524.0
527064.0 1062333.0 17600.0
526719.0 1062268.0 17495.0
509976.0 1063928.0 17284.0
510151.0 1062162.0 17332.0
510308.0 1062275.0 17278.0
510558.0 1064012.0 17346.0
511889.0 1062394.0 17333.0
516903.0 1065400.0 17348.0
524281.0 1063260.0 17316.0
524274.0 1062939.0 17320.0
517431.0 1065169.0 17266.0
516936.0 1065168.0 17284.0
513316.0 1063566.0 17264.0
512287.0 1063100.0 17388.0
513153.0 1063714.0 17364.0
512210.0 1063173.0 17260.0
513036.0 1063793.0 17322.0
510108.0 1062256.0 17363.0
512268.0 1063736.0 17354.0
512192.0 1064004.0 17365.0
509582.0 1063017.0 17357.0
509098.0 1062820.0 17298.0
509507.0 1063108.0 17290.0
510751.0 1064057.0 17373.0
510304.0 1064142.0 17356.0
526907.0 1062277.0 17332.0
524151.0 1063190.0 17346.0
516868.0 1065218.0 17240.0
516326.0 1063465.0 17403.0
512230.0 1064460.0 17244.0
510332.0 1062126.0 17286.0
510099.0 1062359.0 17333.0
509872.0 1062528.0 17394.0
509572.0 1063236.0 17296.0
509436.0 1063197.0 17300.0
509273.0 1063240.0 17351.0
509042.0 1062740.0 17267.0
509621.0 1063150.0 17289.0
509326.0 1063011.0 17359.0
512729.0 1064486.0 17302.0
509555.0 1062939.0 17311.0
512304.0 1064108.0 17300.0
509613.0 1062759.0 17342.0
512324.0 1063894.0 17308.0
509971.0 1062415.0 17411.0
517182.0 1065463.0 17260.0
510316.0 1062003.0 17399.0
516898.0 1065014.0 17410.0
526204.0 1062955.0 17289.0
526966.0 1062128.0 17413.0
508414.0 1062231.0 17131.0
509403.0 1062834.0 17197.0
509982.0 1062663.0 17112.0
511394.0 1062299.0 17190.0
511697.0 1062161.0 17049.0
512466.0 1063663.0 17089.0
512462.0 1064274.0 17055.0
512553.0 1063967.0 17164.0
513243.0 1063414.0 17154.0
516290.0 1063137.0 17050.0
516381.0 1063294.0 17226.0
517213.0 1065535.0 17147.0
517616.0 1065287.0 17096.0
520068.0 1062098.0 17166.0
523995.0 1062057.0 17064.0
516328.0 1063266.0 17222.0
516554.0 1063602.0 17196.0
515991.0 1063393.0 17151.0
516471.0 1063620.0 17124.0
511686.0 1062128.0 17111.0
513386.0 1063227.0 17124.0
511538.0 1062233.0 17148.0
511091.0 1062169.0 17203.0
511573.0 1062354.0 17134.0
511243.0 1062312.0 17159.0
512924.0 1063521.0 17144.0
512718.0 1063690.0 17124.0
512666.0 1063939.0 17204.0
510436.0 1063668.0 17098.0
511262.0 1064193.0 17090.0
509414.0 1063118.0 17108.0
525979.0 1063017.0 17116.0
524016.0 1062196.0 17107.0
519773.0 1062138.0 17146.0
517314.0 1065206.0 17218.0
517077.0 1065207.0 17138.0
512671.0 1063780.0 17079.0
512439.0 1064010.0 17164.0
511905.0 1062282.0 17081.0
510686.0 1063592.0 17113.0
509627.0 1064058.0 17102.0
509733.0 1063051.0 17128.0
509852.0 1064054.0 17193.0
510817.0 1064056.0 17201.0
512291.0 1064553.0 17184.0
510731.0 1063802.0 17116.0
512328.0 1064398.0 17095.0
508309.0 1062327.0 17235.0
509873.0 1062949.0 17066.0
508368.0 1062207.0 17064.0
512649.0 1064099.0 17218.0
510757.0 1063152.0 17219.0
512391.0 1063725.0 17177.0
510750.0 1062948.0 17093.0
512978.0 1063469.0 17055.0
512202.0 1063058.0 17205.0
516452.0 1063776.0 17198.0
516555.0 1063742.0 17060.0
516232.0 1063488.0 17180.0
516275.0 1063361.0 17067.0
519766.0 1062212.0 17214.0
519806.0 1062012.0 17069.0
525851.0 1062933.0 17096.0
509349.0 1063002.0 16842.0
509424.0 1062130.0 16964.0
510422.0 1062895.0 16916.0
512277.0 1063264.0 16917.0
512286.0 1064578.0 16911.0
512416.0 1063601.0 16914.0
512374.0 1064284.0 17012.0
516042.0 1063442.0 17005.0
516832.0 1065125.0 16952.0
517479.0 1065429.0 16945.0
523618.0 1063699.0 16911.0
524112.0 1062337.0 16994.0
526701.0 1062813.0 16890.0
524027.0 1062271.0 16857.0
523506.0 1063601.0 16846.0
520697.0 1062465.0 16889.0
516221.0 1063261.0 17013.0
517399.0 1065412.0 17017.0
517206.0 1065514.0 16898.0
510668.0 1062204.0 16965.0
510047.0 1062680.0 17006.0
512186.0 1064162.0 16946.0
510843.0 1063551.0 16959.0
510232.0 1063649.0 16921.0
509931.0 1063680.0 16936.0
526448.0 1062865.0 16995.0
526177.0 1062995.0 17020.0
517362.0 1065445.0 16948.0
516534.0 1063878.0 16933.0
516009.0 1062926.0 16995.0
513091.0 1063358.0 17003.0
512908.0 1063475.0 17034.0
512376.0 1064484.0 16996.0
511497.0 1062395.0 16994.0
511326.0 1062434.0 16966.0
510913.0 1063194.0 16903.0
511069.0 1062287.0 17025.0
510394.0 1062285.0 16887.0
510185.0 1062606.0 16949.0
509777.0 1063862.0 16950.0
509938.0 1062873.0 16969.0
509760.0 1063849.0 16992.0
510341.0 1063707.0 16864.0
509996.0 1062908.0 16898.0
512890.0 1063749.0 17012.0
512489.0 1063608.0 16855.0
511437.0 1062682.0 16977.0
513179.0 1063337.0 17019.0
511536.0 1062503.0 17013.0
523471.0 1063989.0 17033.0
524187.0 1062199.0 17017.0
526456.0 1062870.0 16982.0
509731.0 1063991.0 16789.0
509974.0 1063673.0 16724.0
510374.0 1062795.0 16665.0
523498.0 1063642.0 16822.0
526947.0 1062638.0 16723.0
526851.0 1062385.0 16687.0
523613.0 1063852.0 16820.0
516789.0 1065161.0 16696.0
511113.0 1062427.0 16769.0
512328.0 1063332.0 16765.0
510676.0 1062417.0 16782.0
510132.0 1062879.0 16761.0
509973.0 1063931.0 16777.0
524143.0 1062288.0 16791.0
520779.0 1062542.0 16732.0
520150.0 1063119.0 16746.0
519900.0 1062065.0 16778.0
517507.0 1065663.0 16827.0
516881.0 1065606.0 16765.0
512375.0 1063495.0 16749.0
510781.0 1063638.0 16695.0
510344.0 1062786.0 16806.0
509931.0 1064010.0 16730.0
509984.0 1063809.0 16770.0
511690.0 1063241.0 16652.0
517533.0 1065791.0 16828.0
512542.0 1063389.0 16733.0
517521.0 1065558.0 16799.0
511145.0 1062393.0 16828.0
520077.0 1063300.0 16826.0
520132.0 1063131.0 16646.0
523466.0 1063829.0 16784.0
520446.0 1062489.0 16693.0
523657.0 1063655.0 16688.0
526902.0 1062359.0 16804.0
509945.0 1064223.0 16584.0
510400.0 1063452.0 16575.0
510589.0 1063522.0 16610.0
512159.0 1062990.0 16573.0
519923.0 1063743.0 16577.0
523140.0 1062432.0 16469.0
526796.0 1062083.0 16444.0
526774.0 1062433.0 16588.0
526878.0 1062766.0 16593.0
526680.0 1062741.0 16613.0
526607.0 1062829.0 16491.0
524007.0 1062386.0 16626.0
523303.0 1062493.0 16632.0
517680.0 1065747.0 16508.0
511116.0 1064058.0 16564.0
526881.0 1062590.0 16580.0
522518.0 1062004.0 16468.0
519965.0 1063527.0 16448.0
520185.0 1062260.0 16440.0
517643.0 1065618.0 16471.0
517069.0 1065622.0 16625.0
512041.0 1063468.0 16464.0
512121.0 1063052.0 16491.0
510129.0 1063759.0 16491.0
511027.0 1064139.0 16607.0
510224.0 1063554.0 16596.0
510972.0 1063726.0 16548.0
510221.0 1063365.0 16564.0
510288.0 1063188.0 16535.0
510997.0 1063320.0 16569.0
510253.0 1062873.0 16610.0
512259.0 1063084.0 16481.0
520077.0 1062380.0 16480.0
526918.0 1062659.0 16616.0
509886.0 1064034.0 16325.0
510326.0 1063339.0 16380.0
510982.0 1063356.0 16240.0
511134.0 1063504.0 16338.0
512022.0 1063455.0 16311.0
519870.0 1063652.0 16437.0
522607.0 1062071.0 16288.0
522800.0 1062234.0 16361.0
523020.0 1062511.0 16284.0
523228.0 1063161.0 16389.0
524411.0 1063091.0 16329.0
526584.0 1062810.0 16320.0
526655.0 1062625.0 16435.0
527110.0 1062998.0 16357.0
524469.0 1062645.0 16351.0
522727.0 1062218.0 16253.0
523139.0 1062572.0 16402.0
523109.0 1062758.0 16243.0
523184.0 1063092.0 16354.0
523276.0 1063425.0 16427.0
519843.0 1062265.0 16324.0
519693.0 1062388.0 16326.0
512040.0 1062893.0 16313.0
510607.0 1063016.0 16282.0
510313.0 1063008.0 16362.0
509867.0 1063977.0 16293.0
526956.0 1063084.0 16251.0
526493.0 1062733.0 16293.0
523154.0 1063264.0 16393.0
519966.0 1062416.0 16423.0
519524.0 1063557.0 16340.0
512291.0 1062979.0 16324.0
511264.0 1062323.0 16257.0
510955.0 1063355.0 16328.0
510461.0 1063033.0 16415.0
510478.0 1062547.0 16318.0
510020.0 1062034.0 16252.0
507985.0 1064366.0 16251.0
507981.0 1064339.0 16241.0
511015.0 1063569.0 16422.0
511238.0 1063158.0 16410.0
510849.0 1063017.0 16317.0
510511.0 1062820.0 16305.0
512183.0 1062867.0 16325.0
520106.0 1062998.0 16370.0
523264.0 1063535.0 16412.0
523377.0 1063143.0 16403.0
524388.0 1063082.0 16401.0
523265.0 1062594.0 16401.0
524496.0 1062880.0 16302.0
526580.0 1062659.0 16421.0
527161.0 1062580.0 16399.0
508152.0 1064326.0 16124.0
510784.0 1062912.0 16199.0
510957.0 1062695.0 16181.0
511278.0 1062791.0 16038.0
512043.0 1062814.0 16232.0
524221.0 1062629.0 16226.0
526502.0 1062815.0 16210.0
526941.0 1063220.0 16092.0
512712.0 1062908.0 16144.0
511931.0 1062561.0 16107.0
512029.0 1063056.0 16204.0
511075.0 1063228.0 16146.0
524322.0 1062844.0 16163.0
524160.0 1062731.0 16193.0
