542193.0 1066316.0 3404.0
542257.0 1066333.0 3393.0
542301.0 1066359.0 3374.0
543103.0 1066170.0 3106.0
542781.0 1063776.0 3069.0
543122.0 1066030.0 3064.0
543176.0 1066506.0 3185.0
542358.0 1065854.0 3048.0
541614.0 1065421.0 3044.0
543507.0 1064790.0 3212.0
542914.0 1066126.0 3075.0
543017.0 1064877.0 3218.0
542298.0 1065888.0 3173.0
542370.0 1065013.0 3045.0
542486.0 1064650.0 3102.0
542341.0 1064273.0 3160.0
541994.0 1063598.0 3195.0
543161.0 1066316.0 3055.0
541469.0 1065376.0 3206.0
542543.0 1064751.0 3085.0
543461.0 1064802.0 3210.0
542337.0 1064368.0 3202.0
541250.0 1064632.0 2894.0
542552.0 1065057.0 3002.0
542890.0 1064224.0 2995.0
543026.0 1065170.0 3009.0
543195.0 1065091.0 3037.0
543865.0 1064575.0 2944.0
543949.0 1064470.0 2970.0
543873.0 1064652.0 3005.0
542938.0 1064648.0 2973.0
542703.0 1064644.0 2909.0
543171.0 1065087.0 3021.0
542487.0 1064759.0 2963.0
541203.0 1064484.0 2982.0
543064.0 1066101.0 2968.0
543884.0 1064532.0 2933.0
541773.0 1065221.0 2875.0
541659.0 1064366.0 2858.0
543230.0 1066138.0 2938.0
542913.0 1066021.0 2885.0
541321.0 1064605.0 2897.0
542917.0 1064954.0 2961.0
543847.0 1064547.0 2864.0
543067.0 1063880.0 2959.0
542671.0 1063743.0 2902.0
542769.0 1065827.0 2730.0
543515.0 1065116.0 2660.0
543701.0 1063967.0 2733.0
542524.0 1064084.0 2708.0
543017.0 1065575.0 2701.0
543645.0 1064471.0 2669.0
542940.0 1064477.0 2803.0
542565.0 1063832.0 2773.0
542047.0 1065098.0 2812.0
542960.0 1065852.0 2740.0
542150.0 1065254.0 2751.0
543723.0 1065069.0 2751.0
542997.0 1064801.0 2714.0
542277.0 1064561.0 2643.0
543852.0 1063933.0 2809.0
542308.0 1063526.0 2564.0
542556.0 1065490.0 2629.0
542521.0 1064218.0 2633.0
543425.0 1064176.0 2582.0
542385.0 1063475.0 2609.0
543407.0 1064293.0 2551.0
542321.0 1063583.0 2561.0
543596.0 1064949.0 2554.0
542369.0 1064099.0 2486.0
542933.0 1065395.0 2629.0
542235.0 1065146.0 2588.0
542659.0 1065518.0 2464.0
543658.0 1064070.0 2634.0
543325.0 1064291.0 2446.0
542846.0 1065677.0 2623.0
542497.0 1065033.0 2590.0
542391.0 1064185.0 2493.0
542320.0 1063786.0 2627.0
542385.0 1063353.0 2552.0
542587.0 1065782.0 2442.0
542825.0 1065621.0 2508.0
541888.0 1064491.0 2496.0
543659.0 1064859.0 2545.0
542714.0 1064207.0 2602.0
542348.0 1064112.0 2440.0
542258.0 1064486.0 2250.0
542091.0 1064501.0 2373.0
542129.0 1064569.0 2266.0
543561.0 1064821.0 2306.0
543422.0 1064853.0 2422.0
543087.0 1064693.0 2277.0
542520.0 1065637.0 2309.0
542599.0 1065244.0 2312.0
542672.0 1065350.0 2304.0
542590.0 1064776.0 2433.0
543317.0 1064813.0 2386.0
543343.0 1064233.0 2427.0
542272.0 1063836.0 2344.0
542399.0 1063516.0 2385.0
542352.0 1064486.0 2052.0
542529.0 1064553.0 2136.0
542371.0 1064488.0 2148.0
542914.0 1064896.0 2156.0
542695.0 1064902.0 2123.0
542626.0 1064838.0 2086.0
542686.0 1064973.0 2135.0
542922.0 1064460.0 2162.0
542431.0 1064527.0 2066.0
542909.0 1064725.0 2228.0
542237.0 1064470.0 2194.0
542447.0 1064526.0 1886.0
542589.0 1064807.0 2024.0
542594.0 1064399.0 1910.0
542567.0 1064667.0 1924.0
542620.0 1064918.0 1319.0
542519.0 1064730.0 1397.0
542553.0 1064770.0 1319.0
542584.0 1064831.0 1160.0
542544.0 1064781.0 1038.0
542350.0 1064288.0 1048.0
542541.0 1064686.0 1124.0
542414.0 1064404.0 962.0
