518864.0 1105434.0 4031.0
519487.0 1099431.0 3908.0
518919.0 1101448.0 3937.0
518479.0 1103975.0 3847.0
518726.0 1101935.0 3915.0
518812.0 1100973.0 3895.0
518280.0 1100112.0 3945.0
516359.0 1099834.0 3908.0
527705.0 1122842.0 3936.0
529765.0 1123497.0 4006.0
527264.0 1122160.0 4020.0
524257.0 1120534.0 4022.0
529768.0 1123308.0 3995.0
529389.0 1123079.0 3905.0
524195.0 1120249.0 4017.0
527567.0 1121886.0 3940.0
524167.0 1119452.0 3973.0
529198.0 1121830.0 3988.0
524459.0 1119303.0 3991.0
530089.0 1122095.0 3904.0
528048.0 1121040.0 3887.0
524631.0 1119148.0 4021.0
524218.0 1118939.0 4031.0
530241.0 1121724.0 4007.0
529099.0 1121173.0 3851.0
524754.0 1118834.0 3868.0
528493.0 1120537.0 3941.0
526014.0 1119196.0 3906.0
525924.0 1118922.0 3905.0
531892.0 1121666.0 4036.0
529569.0 1120498.0 3942.0
526848.0 1119012.0 3992.0
530742.0 1119976.0 3972.0
528613.0 1118912.0 3936.0
524784.0 1116923.0 3873.0
531519.0 1120148.0 4002.0
531125.0 1119960.0 4027.0
530722.0 1119764.0 3977.0
530323.0 1119535.0 4034.0
530589.0 1119487.0 3987.0
529849.0 1119031.0 4033.0
528207.0 1117989.0 3906.0
529748.0 1118078.0 3936.0
528383.0 1116547.0 4014.0
524648.0 1114564.0 3917.0
529359.0 1116890.0 3882.0
520904.0 1111493.0 3984.0
531025.0 1116482.0 3858.0
523195.0 1111465.0 3933.0
531258.0 1115433.0 3948.0
520703.0 1109868.0 3926.0
531288.0 1115246.0 3886.0
523550.0 1111205.0 3862.0
520813.0 1109703.0 3840.0
521109.0 1109603.0 3904.0
520488.0 1108671.0 3919.0
520577.0 1108509.0 3923.0
522026.0 1108802.0 3875.0
521945.0 1108556.0 4012.0
519843.0 1107418.0 3998.0
522314.0 1108582.0 4036.0
524878.0 1109627.0 3967.0
522945.0 1108613.0 3924.0
522606.0 1108416.0 4019.0
523235.0 1108373.0 4035.0
518155.0 1105353.0 3951.0
523356.0 1107542.0 3967.0
519166.0 1105120.0 3892.0
518363.0 1104139.0 3931.0
526924.0 1108386.0 3899.0
525167.0 1107271.0 3841.0
520483.0 1104706.0 3983.0
525959.0 1107419.0 3948.0
525172.0 1106941.0 3986.0
522669.0 1105639.0 3977.0
521407.0 1105027.0 3884.0
525219.0 1106766.0 3930.0
523574.0 1105952.0 3906.0
523216.0 1105720.0 3881.0
520840.0 1104443.0 3981.0
524613.0 1106300.0 3876.0
523060.0 1105458.0 3909.0
523117.0 1105196.0 4013.0
522353.0 1104665.0 3858.0
523300.0 1104889.0 3965.0
520643.0 1103451.0 3970.0
524980.0 1105461.0 3862.0
521272.0 1103501.0 3917.0
518756.0 1102121.0 3910.0
525544.0 1105415.0 3876.0
524753.0 1105035.0 3998.0
519220.0 1101791.0 3940.0
518064.0 1101151.0 3999.0
524389.0 1104312.0 3842.0
523150.0 1103692.0 3922.0
521912.0 1102989.0 3904.0
518568.0 1101205.0 3940.0
524267.0 1103981.0 3864.0
518680.0 1101108.0 4003.0
517148.0 1100158.0 3971.0
524468.0 1103919.0 3882.0
524098.0 1103717.0 3902.0
521422.0 1102214.0 3993.0
520569.0 1101837.0 3870.0
524767.0 1103823.0 3990.0
524347.0 1103622.0 3978.0
522710.0 1102723.0 3997.0
522329.0 1102495.0 3987.0
517715.0 1100086.0 3944.0
520829.0 1101514.0 3958.0
519249.0 1100750.0 3845.0
523627.0 1102512.0 3942.0
522008.0 1101708.0 3869.0
521164.0 1101288.0 3838.0
523511.0 1102163.0 4012.0
520152.0 1099810.0 4033.0
520414.0 1099495.0 3864.0
522415.0 1100233.0 3973.0
520484.0 1098725.0 3887.0
523755.0 1099875.0 3853.0
523883.0 1099683.0 3903.0
516206.0 1100133.0 3643.0
516652.0 1100027.0 3820.0
517032.0 1100452.0 3726.0
517420.0 1103519.0 3724.0
518718.0 1100080.0 3668.0
518596.0 1102443.0 3700.0
518909.0 1099676.0 3826.0
518925.0 1100205.0 3729.0
518791.0 1102933.0 3793.0
519273.0 1099413.0 3649.0
519130.0 1100587.0 3795.0
519371.0 1099466.0 3739.0
519333.0 1101862.0 3643.0
519580.0 1099432.0 3713.0
519509.0 1101593.0 3656.0
519349.0 1104866.0 3674.0
519805.0 1097639.0 3759.0
519669.0 1101813.0 3682.0
519312.0 1107618.0 3822.0
520143.0 1099640.0 3771.0
520205.0 1103395.0 3760.0
520661.0 1098960.0 3726.0
520462.0 1102604.0 3787.0
520487.0 1103194.0 3657.0
520655.0 1102616.0 3828.0
520461.0 1109126.0 3645.0
521005.0 1101663.0 3822.0
520763.0 1106978.0 3639.0
520675.0 1109249.0 3647.0
521329.0 1099219.0 3691.0
521222.0 1101719.0 3806.0
521138.0 1102917.0 3810.0
520884.0 1108925.0 3734.0
520852.0 1109492.0 3753.0
521291.0 1107580.0 3649.0
521190.0 1108640.0 3713.0
521191.0 1109168.0 3658.0
521440.0 1108894.0 3689.0
521717.0 1108303.0 3783.0
522362.0 1098783.0 3742.0
522261.0 1102491.0 3753.0
522451.0 1104217.0 3671.0
522813.0 1101519.0 3726.0
522492.0 1109315.0 3643.0
522968.0 1104329.0 3699.0
522828.0 1107485.0 3667.0
522730.0 1109325.0 3686.0
523062.0 1107884.0 3653.0
523381.0 1107003.0 3687.0
523667.0 1105762.0 3806.0
523412.0 1111326.0 3670.0
523905.0 1104163.0 3818.0
523425.0 1115250.0 3692.0
524176.0 1111647.0 3773.0
523897.0 1117701.0 3660.0
524625.0 1106074.0 3654.0
524418.0 1110359.0 3753.0
524254.0 1112777.0 3720.0
523873.0 1119835.0 3742.0
523894.0 1120410.0 3671.0
524064.0 1119445.0 3755.0
523981.0 1120051.0 3832.0
524014.0 1120610.0 3813.0
524964.0 1105450.0 3721.0
524743.0 1109951.0 3802.0
524607.0 1113871.0 3703.0
524430.0 1117173.0 3720.0
524283.0 1119273.0 3678.0
524857.0 1114139.0 3691.0
524821.0 1114723.0 3730.0
524974.0 1116876.0 3697.0
524730.0 1121694.0 3703.0
525657.0 1107528.0 3758.0
525322.0 1115276.0 3775.0
525077.0 1118481.0 3777.0
524968.0 1121732.0 3687.0
525751.0 1112851.0 3701.0
525710.0 1114078.0 3654.0
526237.0 1108694.0 3712.0
525911.0 1116155.0 3734.0
525735.0 1117972.0 3827.0
525791.0 1118544.0 3684.0
526534.0 1105186.0 3742.0
526472.0 1108644.0 3765.0
526049.0 1118679.0 3649.0
526011.0 1119203.0 3807.0
525816.0 1122435.0 3665.0
526693.0 1108786.0 3763.0
526191.0 1119119.0 3833.0
526597.0 1118628.0 3803.0
526808.0 1122442.0 3755.0
526831.0 1123083.0 3680.0
527342.0 1118248.0 3695.0
527255.0 1118803.0 3772.0
527109.0 1122595.0 3649.0
527041.0 1123143.0 3772.0
527355.0 1122501.0 3696.0
527268.0 1123077.0 3830.0
527595.0 1122560.0 3696.0
528089.0 1116809.0 3793.0
528053.0 1118489.0 3745.0
527928.0 1121768.0 3689.0
528477.0 1115323.0 3640.0
528117.0 1121859.0 3692.0
528797.0 1118615.0 3717.0
528982.0 1120340.0 3647.0
528786.0 1121501.0 3788.0
529167.0 1120013.0 3741.0
529305.0 1121992.0 3640.0
529632.0 1119126.0 3723.0
529749.0 1119200.0 3786.0
529648.0 1122330.0 3697.0
529567.0 1122961.0 3803.0
529604.0 1123512.0 3737.0
529816.0 1120787.0 3809.0
529753.0 1122999.0 3703.0
529931.0 1123257.0 3683.0
530460.0 1118114.0 3664.0
530171.0 1123040.0 3711.0
530751.0 1117810.0 3673.0
530687.0 1118868.0 3796.0
530551.0 1122178.0 3720.0
521656.0 1098385.0 3661.0
522047.0 1098656.0 3702.0
521048.0 1098808.0 3646.0
523029.0 1100723.0 3714.0
523026.0 1101005.0 3797.0
520387.0 1099552.0 3670.0
521586.0 1100357.0 3830.0
522086.0 1100721.0 3666.0
519461.0 1099277.0 3664.0
519482.0 1099492.0 3728.0
519881.0 1099699.0 3683.0
520629.0 1100265.0 3811.0
521910.0 1100958.0 3734.0
521240.0 1100778.0 3810.0
522493.0 1101571.0 3779.0
519180.0 1099713.0 3736.0
523247.0 1102227.0 3743.0
518862.0 1099808.0 3799.0
518852.0 1100013.0 3728.0
518924.0 1100290.0 3665.0
521743.0 1102080.0 3771.0
522172.0 1102276.0 3687.0
522023.0 1102457.0 3669.0
519222.0 1101058.0 3681.0
523973.0 1103987.0 3826.0
517313.0 1100256.0 3771.0
519728.0 1101682.0 3710.0
520148.0 1101939.0 3763.0
523861.0 1104135.0 3661.0
516657.0 1100146.0 3768.0
517076.0 1100379.0 3720.0
518733.0 1101332.0 3728.0
519877.0 1102008.0 3747.0
523070.0 1104012.0 3788.0
523067.0 1104298.0 3654.0
524793.0 1105405.0 3813.0
522272.0 1104150.0 3686.0
518675.0 1102310.0 3709.0
521588.0 1104295.0 3778.0
524640.0 1106142.0 3783.0
527170.0 1107722.0 3818.0
518109.0 1102619.0 3748.0
526900.0 1107983.0 3734.0
525250.0 1107424.0 3706.0
525663.0 1107663.0 3671.0
519751.0 1104471.0 3777.0
520621.0 1104902.0 3642.0
525074.0 1107592.0 3721.0
526654.0 1108643.0 3800.0
516585.0 1102943.0 3825.0
521735.0 1105904.0 3772.0
526069.0 1108563.0 3675.0
522992.0 1107359.0 3692.0
518868.0 1105135.0 3640.0
523012.0 1107904.0 3669.0
523396.0 1108209.0 3832.0
521401.0 1107246.0 3822.0
522719.0 1107922.0 3661.0
523064.0 1108223.0 3830.0
524839.0 1109761.0 3779.0
517886.0 1105819.0 3678.0
517891.0 1105964.0 3643.0
519595.0 1107079.0 3754.0
521278.0 1108018.0 3657.0
522094.0 1108577.0 3789.0
522796.0 1109154.0 3765.0
521240.0 1108453.0 3684.0
522031.0 1108895.0 3747.0
522773.0 1109344.0 3725.0
524396.0 1110350.0 3752.0
521344.0 1108783.0 3664.0
520766.0 1108787.0 3788.0
520215.0 1108781.0 3812.0
520634.0 1108972.0 3710.0
521010.0 1109233.0 3721.0
524587.0 1111328.0 3689.0
531451.0 1115537.0 3741.0
520497.0 1109160.0 3642.0
520875.0 1109433.0 3757.0
524160.0 1111647.0 3681.0
525623.0 1112778.0 3685.0
526348.0 1113320.0 3775.0
526459.0 1113547.0 3654.0
528538.0 1115163.0 3737.0
524241.0 1112798.0 3811.0
521460.0 1111325.0 3638.0
526065.0 1114133.0 3782.0
523916.0 1113040.0 3698.0
525459.0 1114040.0 3725.0
525868.0 1114204.0 3797.0
527962.0 1115513.0 3748.0
521519.0 1111820.0 3701.0
524618.0 1113780.0 3774.0
524806.0 1114088.0 3726.0
524664.0 1114288.0 3713.0
531086.0 1118231.0 3835.0
529015.0 1117222.0 3797.0
525303.0 1115248.0 3805.0
529607.0 1117803.0 3659.0
527936.0 1117052.0 3714.0
526344.0 1116361.0 3779.0
530720.0 1119012.0 3821.0
530874.0 1119261.0 3795.0
523723.0 1115270.0 3815.0
526231.0 1116645.0 3669.0
530713.0 1119312.0 3787.0
531051.0 1119658.0 3820.0
526985.0 1117373.0 3640.0
530974.0 1119782.0 3814.0
526036.0 1117482.0 3659.0
526371.0 1117751.0 3758.0
527229.0 1118550.0 3679.0
529250.0 1119781.0 3685.0
524737.0 1117473.0 3723.0
525995.0 1118578.0 3733.0
523943.0 1117667.0 3688.0
529072.0 1120691.0 3677.0
529861.0 1121185.0 3641.0
523971.0 1117952.0 3697.0
524371.0 1118198.0 3707.0
529018.0 1120980.0 3785.0
530719.0 1122184.0 3658.0
528949.0 1121371.0 3804.0
528667.0 1121414.0 3766.0
529095.0 1121641.0 3717.0
524099.0 1118950.0 3709.0
528080.0 1121231.0 3647.0
528900.0 1121709.0 3649.0
529307.0 1121989.0 3818.0
523934.0 1119054.0 3667.0
524243.0 1119241.0 3739.0
529432.0 1122299.0 3781.0
523913.0 1119374.0 3711.0
529378.0 1122562.0 3659.0
529755.0 1122835.0 3717.0
529230.0 1122841.0 3784.0
530037.0 1123258.0 3649.0
524391.0 1120344.0 3758.0
527571.0 1122178.0 3779.0
529208.0 1123115.0 3747.0
529578.0 1123318.0 3670.0
523792.0 1120274.0 3719.0
527528.0 1122502.0 3833.0
526761.0 1122334.0 3799.0
526573.0 1122442.0 3642.0
524798.0 1121661.0 3675.0
525119.0 1121898.0 3776.0
527139.0 1123034.0 3777.0
524809.0 1121808.0 3667.0
524701.0 1121879.0 3689.0
531641.0 1119999.0 3680.0
531388.0 1119918.0 3684.0
530920.0 1119247.0 3675.0
531060.0 1118159.0 3728.0
531348.0 1115406.0 3791.0
530849.0 1118871.0 3709.0
530807.0 1118344.0 3640.0
530910.0 1117883.0 3675.0
531192.0 1115403.0 3806.0
530549.0 1119255.0 3709.0
530700.0 1118213.0 3770.0
529425.0 1122973.0 3836.0
529218.0 1123099.0 3817.0
529320.0 1121501.0 3736.0
529050.0 1123183.0 3747.0
529000.0 1121594.0 3792.0
529343.0 1117347.0 3660.0
528756.0 1121915.0 3668.0
528535.0 1121354.0 3690.0
528233.0 1121360.0 3658.0
528129.0 1120509.0 3836.0
528390.0 1117245.0 3835.0
527962.0 1118419.0 3710.0
527442.0 1122254.0 3741.0
527845.0 1117975.0 3683.0
527077.0 1123072.0 3733.0
527125.0 1122527.0 3717.0
526605.0 1122393.0 3784.0
525891.0 1121499.0 3639.0
526280.0 1117699.0 3828.0
525699.0 1122385.0 3745.0
525990.0 1118535.0 3727.0
526097.0 1116869.0 3713.0
526144.0 1116315.0 3650.0
527013.0 1107784.0 3730.0
526068.0 1116396.0 3809.0
526130.0 1115381.0 3769.0
526327.0 1113472.0 3786.0
526849.0 1108520.0 3786.0
526877.0 1108055.0 3749.0
526955.0 1107541.0 3800.0
526050.0 1114153.0 3763.0
525434.0 1117951.0 3691.0
526395.0 1108645.0 3720.0
525164.0 1119044.0 3837.0
526160.0 1108547.0 3730.0
524910.0 1118998.0 3750.0
525369.0 1114196.0 3745.0
525891.0 1108325.0 3651.0
524765.0 1119037.0 3824.0
524418.0 1120248.0 3661.0
524477.0 1119738.0 3721.0
524595.0 1118695.0 3725.0
524946.0 1114200.0 3663.0
524346.0 1119033.0 3773.0
524687.0 1114175.0 3640.0
525453.0 1107366.0 3754.0
524593.0 1114301.0 3727.0
525263.0 1107281.0 3818.0
524708.0 1109860.0 3721.0
525016.0 1107431.0 3803.0
523640.0 1119302.0 3708.0
524234.0 1112748.0 3783.0
524771.0 1105460.0 3812.0
524618.0 1104164.0 3713.0
523418.0 1115113.0 3764.0
524219.0 1106615.0 3810.0
524443.0 1104023.0 3768.0
523933.0 1106695.0 3679.0
524118.0 1105134.0 3656.0
523232.0 1107267.0 3735.0
523585.0 1104045.0 3713.0
523766.0 1102465.0 3741.0
523306.0 1104210.0 3673.0
522418.0 1110485.0 3715.0
522582.0 1109369.0 3779.0
523257.0 1102017.0 3711.0
523514.0 1100430.0 3728.0
522187.0 1110407.0 3803.0
523092.0 1101128.0 3720.0
522089.0 1108309.0 3658.0
522676.0 1102309.0 3799.0
522836.0 1100897.0 3805.0
522453.0 1101669.0 3725.0
522626.0 1100646.0 3823.0
522648.0 1099640.0 3716.0
521214.0 1111472.0 3671.0
521348.0 1111006.0 3767.0
521480.0 1108796.0 3668.0
522170.0 1102331.0 3818.0
521265.0 1109201.0 3763.0
521316.0 1108224.0 3654.0
521864.0 1102761.0 3646.0
522018.0 1101801.0 3802.0
521041.0 1109130.0 3721.0
521139.0 1108611.0 3837.0
521205.0 1108083.0 3795.0
521447.0 1104824.0 3826.0
522105.0 1098609.0 3735.0
520829.0 1109041.0 3705.0
521030.0 1107337.0 3727.0
521903.0 1099290.0 3810.0
520577.0 1109150.0 3649.0
521106.0 1104123.0 3689.0
520429.0 1108961.0 3793.0
521122.0 1101453.0 3712.0
520175.0 1108918.0 3752.0
521102.0 1099169.0 3740.0
520586.0 1099243.0 3638.0
519932.0 1103454.0 3747.0
520100.0 1101833.0 3740.0
520255.0 1100194.0 3735.0
519395.0 1107266.0 3756.0
520151.0 1098793.0 3643.0
519129.0 1105035.0 3829.0
519244.0 1100899.0 3699.0
519626.0 1097463.0 3762.0
519053.0 1101166.0 3645.0
519078.0 1100649.0 3773.0
519171.0 1100136.0 3734.0
518559.0 1104695.0 3660.0
518945.0 1100897.0 3816.0
518953.0 1100350.0 3703.0
519042.0 1099816.0 3731.0
519090.0 1099293.0 3706.0
518947.0 1099001.0 3654.0
518193.0 1105117.0 3763.0
518432.0 1102413.0 3742.0
518642.0 1100274.0 3678.0
518748.0 1099222.0 3676.0
518218.0 1102539.0 3671.0
517875.0 1101737.0 3777.0
517780.0 1100006.0 3799.0
516657.0 1100560.0 3663.0
516714.0 1100106.0 3775.0
516533.0 1099996.0 3834.0
527017.0 1123052.0 3665.0
526945.0 1122815.0 3663.0
526513.0 1122596.0 3646.0
524869.0 1121613.0 3733.0
527304.0 1122687.0 3787.0
526878.0 1122462.0 3800.0
527752.0 1122770.0 3714.0
527367.0 1122564.0 3741.0
529366.0 1123354.0 3735.0
527743.0 1122310.0 3756.0
524413.0 1120246.0 3762.0
523838.0 1119603.0 3821.0
523438.0 1119428.0 3707.0
523719.0 1119317.0 3762.0
527995.0 1121311.0 3764.0
523628.0 1119001.0 3784.0
528398.0 1121312.0 3712.0
528674.0 1121312.0 3719.0
528304.0 1121036.0 3795.0
523958.0 1118633.0 3810.0
528096.0 1120368.0 3822.0
526236.0 1119177.0 3656.0
523912.0 1117883.0 3708.0
526029.0 1118729.0 3698.0
529220.0 1120104.0 3771.0
526731.0 1118768.0 3830.0
525969.0 1117811.0 3724.0
531366.0 1119967.0 3649.0
530226.0 1119284.0 3830.0
527894.0 1118113.0 3784.0
531505.0 1119862.0 3682.0
530711.0 1119363.0 3756.0
529928.0 1118957.0 3673.0
531593.0 1119714.0 3640.0
530855.0 1119277.0 3649.0
526104.0 1116726.0 3751.0
530896.0 1119065.0 3722.0
526990.0 1117029.0 3709.0
530727.0 1118374.0 3756.0
529522.0 1117779.0 3691.0
525158.0 1115393.0 3836.0
531069.0 1118270.0 3818.0
529097.0 1117257.0 3692.0
525548.0 1115390.0 3674.0
530864.0 1117959.0 3657.0
528477.0 1116459.0 3737.0
524567.0 1114374.0 3708.0
525020.0 1114377.0 3802.0
524622.0 1114208.0 3653.0
528464.0 1115999.0 3776.0
525132.0 1114256.0 3674.0
524719.0 1114095.0 3755.0
525549.0 1114235.0 3695.0
526132.0 1114267.0 3743.0
524249.0 1112701.0 3718.0
530654.0 1115411.0 3829.0
525661.0 1112903.0 3664.0
530918.0 1115348.0 3811.0
523419.0 1111390.0 3765.0
524298.0 1111620.0 3680.0
523998.0 1111230.0 3815.0
520645.0 1109438.0 3746.0
524668.0 1111369.0 3724.0
521167.0 1109409.0 3831.0
520736.0 1109256.0 3682.0
521263.0 1109168.0 3829.0
520850.0 1108993.0 3731.0
521380.0 1108989.0 3720.0
520972.0 1108700.0 3831.0
522810.0 1109488.0 3809.0
522040.0 1109063.0 3641.0
521234.0 1108642.0 3735.0
519246.0 1107496.0 3832.0
518865.0 1107312.0 3717.0
521205.0 1108448.0 3714.0
519262.0 1107359.0 3800.0
519375.0 1107303.0 3690.0
524646.0 1109919.0 3717.0
522532.0 1107760.0 3821.0
523686.0 1108040.0 3835.0
521276.0 1106816.0 3670.0
518301.0 1104890.0 3829.0
523115.0 1107311.0 3731.0
518987.0 1104889.0 3678.0
518599.0 1104688.0 3645.0
526581.0 1108562.0 3776.0
524935.0 1107664.0 3803.0
521589.0 1106013.0 3670.0
524877.0 1107525.0 3645.0
518562.0 1104104.0 3665.0
526828.0 1107940.0 3726.0
520535.0 1104603.0 3660.0
522795.0 1105524.0 3792.0
520677.0 1104295.0 3662.0
519726.0 1103481.0 3787.0
521176.0 1104115.0 3673.0
522123.0 1104311.0 3807.0
521364.0 1103940.0 3784.0
518642.0 1102455.0 3826.0
526254.0 1105847.0 3648.0
518828.0 1101958.0 3813.0
523865.0 1104338.0 3640.0
523477.0 1104171.0 3647.0
523967.0 1104147.0 3743.0
523568.0 1103915.0 3785.0
522722.0 1103491.0 3707.0
520236.0 1102191.0 3647.0
519356.0 1101692.0 3761.0
517261.0 1100534.0 3780.0
516445.0 1100066.0 3810.0
524614.0 1104245.0 3813.0
523849.0 1103836.0 3825.0
521883.0 1102793.0 3657.0
516682.0 1100135.0 3680.0
522072.0 1102798.0 3682.0
519766.0 1101569.0 3646.0
518991.0 1101087.0 3746.0
521466.0 1102144.0 3824.0
521983.0 1102219.0 3779.0
517638.0 1099974.0 3673.0
521862.0 1101902.0 3815.0
521088.0 1101496.0 3780.0
519043.0 1100235.0 3678.0
518648.0 1100032.0 3687.0
519138.0 1099973.0 3668.0
518751.0 1099721.0 3770.0
518808.0 1099500.0 3735.0
519263.0 1099497.0 3642.0
522733.0 1100738.0 3735.0
523172.0 1100760.0 3650.0
522759.0 1100538.0 3682.0
521992.0 1100079.0 3751.0
523795.0 1100708.0 3820.0
521806.0 1099748.0 3675.0
522064.0 1099534.0 3814.0
521672.0 1099410.0 3674.0
519623.0 1097532.0 3704.0
516451.0 1100478.0 3477.0
516592.0 1100444.0 3547.0
516728.0 1100537.0 3506.0
516903.0 1100584.0 3469.0
517454.0 1100345.0 3453.0
517280.0 1102988.0 3580.0
517244.0 1104092.0 3545.0
518264.0 1100649.0 3565.0
517933.0 1105989.0 3608.0
518539.0 1100244.0 3572.0
518775.0 1100642.0 3482.0
519020.0 1099185.0 3528.0
518955.0 1100761.0 3525.0
518824.0 1104556.0 3489.0
519173.0 1101200.0 3574.0
519173.0 1101806.0 3477.0
518971.0 1105276.0 3563.0
519343.0 1101283.0 3613.0
519724.0 1097734.0 3591.0
519736.0 1098293.0 3492.0
519592.0 1099982.0 3633.0
519840.0 1098241.0 3520.0
519854.0 1098830.0 3458.0
519833.0 1099423.0 3560.0
519733.0 1100040.0 3633.0
519912.0 1102027.0 3514.0
519661.0 1106180.0 3602.0
520252.0 1098553.0 3543.0
519917.0 1106130.0 3594.0
519931.0 1106640.0 3442.0
520330.0 1102202.0 3596.0
520723.0 1104321.0 3620.0
521179.0 1098673.0 3516.0
521154.0 1099225.0 3544.0
521408.0 1098631.0 3563.0
521114.0 1105914.0 3494.0
521675.0 1098804.0 3547.0
521271.0 1108105.0 3635.0
521824.0 1102449.0 3550.0
521839.0 1102991.0 3486.0
521715.0 1105425.0 3468.0
521641.0 1106003.0 3579.0
522062.0 1102862.0 3618.0
522383.0 1101872.0 3492.0
522365.0 1107555.0 3568.0
522295.0 1108686.0 3542.0
522922.0 1100240.0 3475.0
522554.0 1108781.0 3502.0
522850.0 1108111.0 3528.0
523065.0 1109001.0 3582.0
523035.0 1109565.0 3555.0
523475.0 1105159.0 3582.0
523306.0 1108757.0 3505.0
523668.0 1111377.0 3596.0
524255.0 1100040.0 3563.0
523639.0 1115039.0 3588.0
523966.0 1113026.0 3624.0
523584.0 1119646.0 3587.0
524528.0 1105537.0 3501.0
524190.0 1112205.0 3503.0
524162.0 1112757.0 3622.0
523791.0 1119302.0 3558.0
523728.0 1119824.0 3566.0
524671.0 1105474.0 3594.0
524014.0 1118104.0 3632.0
524053.0 1118678.0 3470.0
523960.0 1119245.0 3609.0
524476.0 1114005.0 3524.0
524305.0 1117107.0 3568.0
525041.0 1106564.0 3470.0
524618.0 1114408.0 3593.0
524478.0 1118267.0 3443.0
525181.0 1107507.0 3621.0
524686.0 1118254.0 3533.0
525436.0 1107655.0 3605.0
525124.0 1115077.0 3489.0
525735.0 1108069.0 3504.0
525312.0 1116909.0 3528.0
525684.0 1115857.0 3450.0
525391.0 1121138.0 3438.0
526379.0 1105550.0 3455.0
526553.0 1109194.0 3466.0
526341.0 1113695.0 3559.0
526173.0 1116999.0 3514.0
526348.0 1118528.0 3509.0
526235.0 1120303.0 3446.0
526971.0 1109356.0 3473.0
526765.0 1114363.0 3446.0
527095.0 1109151.0 3601.0
526917.0 1117358.0 3605.0
526656.0 1122626.0 3554.0
527150.0 1118259.0 3517.0
527977.0 1117050.0 3448.0
528210.0 1115699.0 3620.0
528494.0 1116519.0 3498.0
528712.0 1117106.0 3458.0
528400.0 1121969.0 3580.0
528631.0 1121850.0 3610.0
529073.0 1117342.0 3604.0
528851.0 1122101.0 3599.0
529304.0 1118768.0 3463.0
529200.0 1120636.0 3567.0
529514.0 1118145.0 3636.0
529418.0 1119778.0 3535.0
529402.0 1120916.0 3531.0
529325.0 1123102.0 3509.0
529761.0 1117377.0 3519.0
529731.0 1117943.0 3605.0
529507.0 1122756.0 3592.0
529477.0 1123347.0 3597.0
529931.0 1117986.0 3533.0
530005.0 1117955.0 3623.0
529928.0 1121327.0 3479.0
529863.0 1122435.0 3534.0
530180.0 1123574.0 3596.0
531102.0 1117691.0 3615.0
531371.0 1119577.0 3452.0
524125.0 1099312.0 3498.0
522474.0 1098601.0 3522.0
522500.0 1098820.0 3594.0
521582.0 1098490.0 3556.0
521952.0 1098713.0 3567.0
524016.0 1099945.0 3483.0
521362.0 1098641.0 3573.0
519820.0 1098050.0 3549.0
522728.0 1099813.0 3517.0
521171.0 1099205.0 3590.0
522736.0 1100207.0 3617.0
522164.0 1100188.0 3600.0
522083.0 1100504.0 3521.0
519587.0 1099063.0 3476.0
520403.0 1099635.0 3523.0
521665.0 1100422.0 3600.0
522982.0 1101225.0 3605.0
520372.0 1100159.0 3621.0
521686.0 1100938.0 3509.0
521681.0 1101160.0 3551.0
522482.0 1101669.0 3456.0
522892.0 1101939.0 3628.0
520182.0 1100401.0 3438.0
522542.0 1101894.0 3478.0
522767.0 1102295.0 3584.0
518543.0 1100011.0 3520.0
518486.0 1100265.0 3586.0
526477.0 1105161.0 3573.0
517627.0 1100020.0 3516.0
517989.0 1100270.0 3510.0
521865.0 1102560.0 3557.0
522208.0 1102810.0 3615.0
526215.0 1105242.0 3439.0
518948.0 1101126.0 3609.0
519355.0 1101368.0 3482.0
520613.0 1102122.0 3546.0
520312.0 1102223.0 3497.0
516193.0 1100135.0 3627.0
516613.0 1100384.0 3591.0
519234.0 1101885.0 3484.0
517822.0 1101372.0 3477.0
519011.0 1102101.0 3512.0
523095.0 1104591.0 3627.0
525993.0 1106321.0 3482.0
520353.0 1103172.0 3449.0
523562.0 1105177.0 3475.0
518628.0 1102449.0 3611.0
521269.0 1104253.0 3507.0
521671.0 1104451.0 3493.0
518520.0 1102792.0 3508.0
520907.0 1104273.0 3631.0
520768.0 1104610.0 3556.0
524078.0 1106598.0 3445.0
523819.0 1106880.0 3623.0
525489.0 1107802.0 3516.0
525857.0 1108074.0 3602.0
517467.0 1103335.0 3544.0
520016.0 1104924.0 3593.0
526495.0 1108842.0 3631.0
526934.0 1109085.0 3617.0
517347.0 1103649.0 3619.0
519411.0 1104836.0 3569.0
520223.0 1105283.0 3491.0
522198.0 1106535.0 3636.0
523076.0 1107053.0 3573.0
526332.0 1108992.0 3498.0
526738.0 1109228.0 3502.0
518647.0 1104694.0 3555.0
520626.0 1105820.0 3450.0
519059.0 1105774.0 3613.0
519932.0 1106241.0 3489.0
521892.0 1107433.0 3551.0
519963.0 1106476.0 3462.0
521256.0 1107293.0 3594.0
519931.0 1106715.0 3462.0
523028.0 1108798.0 3567.0
524733.0 1110025.0 3603.0
519606.0 1107120.0 3472.0
521269.0 1108142.0 3621.0
518922.0 1106994.0 3462.0
521687.0 1108599.0 3466.0
518829.0 1107192.0 3468.0
521816.0 1108968.0 3439.0
522626.0 1109467.0 3479.0
521220.0 1108965.0 3637.0
521624.0 1109166.0 3503.0
522581.0 1110681.0 3636.0
526012.0 1112979.0 3495.0
524138.0 1112349.0 3500.0
526214.0 1113585.0 3476.0
521528.0 1111089.0 3550.0
531811.0 1117381.0 3616.0
528280.0 1115404.0 3598.0
525467.0 1114124.0 3602.0
531130.0 1117590.0 3526.0
524454.0 1113792.0 3537.0
530869.0 1117658.0 3559.0
529927.0 1117364.0 3459.0
530738.0 1117902.0 3623.0
524644.0 1114517.0 3622.0
530617.0 1118068.0 3567.0
524918.0 1114921.0 3583.0
527892.0 1116732.0 3602.0
530438.0 1118194.0 3450.0
525129.0 1115256.0 3477.0
525484.0 1115552.0 3614.0
525639.0 1115793.0 3483.0
528006.0 1117218.0 3569.0
528388.0 1117474.0 3624.0
523669.0 1114787.0 3444.0
529527.0 1118554.0 3502.0
526874.0 1117571.0 3539.0
524847.0 1116760.0 3517.0
527238.0 1118188.0 3614.0
528797.0 1119100.0 3552.0
524351.0 1117156.0 3553.0
528149.0 1119424.0 3614.0
525613.0 1118286.0 3525.0
524673.0 1118079.0 3532.0
526708.0 1119218.0 3517.0
524798.0 1118383.0 3525.0
526100.0 1119100.0 3440.0
527799.0 1120155.0 3578.0
523921.0 1118112.0 3564.0
523866.0 1118247.0 3485.0
530518.0 1122243.0 3622.0
529530.0 1121851.0 3510.0
523811.0 1118673.0 3529.0
528503.0 1121443.0 3494.0
528229.0 1121549.0 3531.0
528640.0 1121792.0 3564.0
529840.0 1122446.0 3450.0
528140.0 1121798.0 3615.0
528548.0 1122011.0 3618.0
523623.0 1119481.0 3569.0
527267.0 1121545.0 3445.0
529625.0 1122934.0 3537.0
523658.0 1119834.0 3607.0
525585.0 1120967.0 3626.0
529983.0 1123527.0 3589.0
525431.0 1121171.0 3514.0
527150.0 1122130.0 3512.0
529722.0 1123655.0 3553.0
523657.0 1120391.0 3494.0
524050.0 1120593.0 3552.0
525181.0 1121306.0 3525.0
527202.0 1122464.0 3590.0
524898.0 1121450.0 3559.0
526990.0 1122658.0 3623.0
526767.0 1122747.0 3584.0
526809.0 1122946.0 3606.0
525575.0 1122342.0 3554.0
524688.0 1122040.0 3583.0
525583.0 1123008.0 3478.0
531331.0 1119487.0 3443.0
531106.0 1117651.0 3580.0
530014.0 1123493.0 3448.0
529802.0 1123471.0 3504.0
529845.0 1122916.0 3471.0
530022.0 1120759.0 3459.0
530397.0 1118029.0 3636.0
529541.0 1123404.0 3528.0
529986.0 1118390.0 3507.0
530081.0 1117885.0 3546.0
529429.0 1122404.0 3613.0
529435.0 1121882.0 3567.0
529848.0 1117106.0 3478.0
529292.0 1120924.0 3603.0
529630.0 1117703.0 3589.0
529691.0 1116630.0 3477.0
529173.0 1120696.0 3611.0
529484.0 1117721.0 3580.0
529304.0 1117853.0 3500.0
528721.0 1121361.0 3534.0
528887.0 1119672.0 3457.0
528887.0 1119159.0 3456.0
528460.0 1121813.0 3550.0
527801.0 1122732.0 3603.0
527887.0 1121594.0 3547.0
528500.0 1115151.0 3592.0
527558.0 1122399.0 3572.0
528241.0 1115494.0 3579.0
527527.0 1119504.0 3456.0
527168.0 1121419.0 3439.0
526807.0 1122861.0 3603.0
526665.0 1120802.0 3588.0
526902.0 1118563.0 3617.0
526400.0 1120742.0 3515.0
526668.0 1118505.0 3619.0
526699.0 1117408.0 3538.0
525773.0 1122549.0 3599.0
525949.0 1120945.0 3599.0
526108.0 1118756.0 3578.0
526466.0 1114480.0 3447.0
526185.0 1115777.0 3536.0
525821.0 1118381.0 3624.0
526145.0 1114887.0 3582.0
526694.0 1109030.0 3541.0
525342.0 1121195.0 3503.0
525615.0 1118434.0 3592.0
526508.0 1108907.0 3562.0
525793.0 1114076.0 3599.0
525116.0 1118531.0 3552.0
525981.0 1109058.0 3458.0
524682.0 1121163.0 3473.0
524930.0 1117391.0 3460.0
526129.0 1105684.0 3510.0
524715.0 1117913.0 3448.0
524809.0 1116858.0 3534.0
525574.0 1109154.0 3466.0
525708.0 1108147.0 3568.0
525881.0 1106536.0 3526.0
524582.0 1118154.0 3618.0
524667.0 1117201.0 3590.0
525538.0 1107813.0 3538.0
524698.0 1114646.0 3592.0
524516.0 1113747.0 3589.0
524449.0 1110133.0 3542.0
524861.0 1105841.0 3599.0
524104.0 1111376.0 3603.0
524652.0 1105949.0 3534.0
523535.0 1115043.0 3603.0
524337.0 1106532.0 3552.0
523363.0 1107197.0 3452.0
523493.0 1106706.0 3545.0
523700.0 1104131.0 3559.0
522976.0 1109432.0 3544.0
522731.0 1109249.0 3608.0
522816.0 1108218.0 3540.0
523120.0 1104702.0 3483.0
523578.0 1100799.0 3494.0
522606.0 1107800.0 3591.0
522838.0 1105103.0 3546.0
522914.0 1104589.0 3466.0
522941.0 1104100.0 3506.0
523234.0 1101417.0 3491.0
522168.0 1109194.0 3450.0
522580.0 1105438.0 3601.0
522927.0 1101674.0 3488.0
522820.0 1100421.0 3591.0
522825.0 1099911.0 3441.0
521464.0 1111230.0 3564.0
521673.0 1109068.0 3611.0
521713.0 1108554.0 3636.0
522603.0 1100135.0 3629.0
521958.0 1102879.0 3449.0
521305.0 1107255.0 3459.0
521248.0 1106474.0 3567.0
521429.0 1104293.0 3587.0
521659.0 1102250.0 3627.0
521059.0 1105741.0 3449.0
521278.0 1104091.0 3591.0
521456.0 1102424.0 3497.0
521552.0 1100868.0 3462.0
521831.0 1098701.0 3506.0
521254.0 1101652.0 3445.0
520623.0 1105692.0 3520.0
521441.0 1098340.0 3575.0
520765.0 1101860.0 3530.0
521123.0 1098663.0 3542.0
520672.0 1100284.0 3632.0
519718.0 1107139.0 3487.0
520092.0 1103436.0 3526.0
520195.0 1102932.0 3567.0
520264.0 1101920.0 3590.0
520414.0 1100267.0 3586.0
520451.0 1099744.0 3457.0
520556.0 1098758.0 3487.0
519487.0 1107271.0 3469.0
520253.0 1099685.0 3547.0
519271.0 1105178.0 3516.0
519816.0 1098732.0 3440.0
519264.0 1102197.0 3448.0
519505.0 1100052.0 3477.0
519573.0 1099525.0 3614.0
519746.0 1097861.0 3549.0
519309.0 1099913.0 3624.0
519401.0 1098440.0 3484.0
519553.0 1097920.0 3573.0
519151.0 1099583.0 3610.0
519242.0 1099116.0 3611.0
518571.0 1104153.0 3624.0
518811.0 1101990.0 3628.0
518551.0 1102445.0 3595.0
518796.0 1099473.0 3523.0
517794.0 1105837.0 3524.0
518022.0 1103642.0 3475.0
518342.0 1100326.0 3483.0
517923.0 1102565.0 3467.0
517653.0 1102818.0 3454.0
517964.0 1100119.0 3636.0
516399.0 1100493.0 3585.0
525644.0 1122977.0 3467.0
526608.0 1122893.0 3518.0
525817.0 1122482.0 3631.0
524872.0 1121415.0 3609.0
529344.0 1123618.0 3555.0
524925.0 1121322.0 3474.0
527604.0 1122529.0 3617.0
525882.0 1121626.0 3530.0
530226.0 1123489.0 3442.0
529885.0 1123292.0 3614.0
529518.0 1123085.0 3571.0
530015.0 1123134.0 3441.0
529635.0 1122864.0 3603.0
528531.0 1121924.0 3588.0
529870.0 1122450.0 3467.0
529526.0 1122224.0 3553.0
528685.0 1121835.0 3546.0
525947.0 1120313.0 3530.0
530442.0 1122412.0 3591.0
528816.0 1121604.0 3592.0
523781.0 1118852.0 3619.0
525042.0 1118842.0 3555.0
530205.0 1121375.0 3469.0
525430.0 1118787.0 3503.0
529120.0 1120423.0 3582.0
525624.0 1118555.0 3550.0
525242.0 1118338.0 3568.0
524830.0 1118134.0 3516.0
524053.0 1117697.0 3557.0
527481.0 1119263.0 3613.0
527103.0 1118995.0 3583.0
529048.0 1119819.0 3511.0
527067.0 1118741.0 3599.0
528312.0 1119089.0 3548.0
524799.0 1117241.0 3555.0
526435.0 1117879.0 3587.0
524377.0 1116730.0 3585.0
524649.0 1116712.0 3585.0
530987.0 1119774.0 3608.0
526625.0 1117553.0 3496.0
525906.0 1117130.0 3527.0
524645.0 1116537.0 3486.0
529461.0 1118766.0 3588.0
529084.0 1118614.0 3543.0
527759.0 1117933.0 3466.0
526953.0 1117496.0 3518.0
526142.0 1117064.0 3467.0
526207.0 1116642.0 3510.0
523484.0 1115110.0 3610.0
530896.0 1118880.0 3494.0
530073.0 1118472.0 3492.0
528409.0 1117552.0 3562.0
529920.0 1117988.0 3623.0
526288.0 1116177.0 3441.0
530631.0 1118122.0 3611.0
530247.0 1117930.0 3587.0
529842.0 1117749.0 3550.0
529436.0 1117549.0 3488.0
526252.0 1115882.0 3474.0
530463.0 1117776.0 3630.0
530839.0 1117757.0 3568.0
526123.0 1115261.0 3597.0
531181.0 1117710.0 3565.0
526173.0 1115101.0 3520.0
531288.0 1117601.0 3457.0
529222.0 1116556.0 3439.0
531792.0 1117585.0 3574.0
528658.0 1115979.0 3506.0
528463.0 1115567.0 3554.0
525737.0 1114101.0 3585.0
528425.0 1115287.0 3579.0
525952.0 1113962.0 3522.0
521374.0 1111478.0 3558.0
521440.0 1111212.0 3610.0
522328.0 1110629.0 3585.0
521798.0 1109225.0 3621.0
524348.0 1110367.0 3573.0
522771.0 1109312.0 3633.0
521558.0 1108699.0 3558.0
522669.0 1109177.0 3590.0
522633.0 1108934.0 3471.0
521431.0 1108291.0 3502.0
519482.0 1107202.0 3547.0
522129.0 1108378.0 3577.0
517787.0 1105985.0 3628.0
521148.0 1107430.0 3594.0
520913.0 1106986.0 3471.0
526003.0 1109336.0 3463.0
526605.0 1109412.0 3443.0
526605.0 1109227.0 3440.0
526210.0 1109032.0 3478.0
526706.0 1109016.0 3548.0
526326.0 1108811.0 3602.0
525961.0 1108599.0 3630.0
519319.0 1105101.0 3622.0
525764.0 1108204.0 3588.0
525688.0 1107863.0 3598.0
525246.0 1107740.0 3477.0
521701.0 1105829.0 3528.0
525813.0 1107811.0 3493.0
525487.0 1107583.0 3591.0
523890.0 1106678.0 3575.0
523855.0 1106477.0 3451.0
522561.0 1105390.0 3441.0
517906.0 1102770.0 3634.0
518035.0 1102672.0 3556.0
517198.0 1102283.0 3482.0
517928.0 1102495.0 3471.0
525918.0 1106402.0 3496.0
524802.0 1105769.0 3610.0
522930.0 1104815.0 3596.0
525340.0 1105757.0 3499.0
523217.0 1104676.0 3538.0
522024.0 1104064.0 3443.0
520308.0 1103143.0 3505.0
518285.0 1102071.0 3584.0
525924.0 1105740.0 3542.0
523517.0 1104505.0 3589.0
523142.0 1104260.0 3590.0
519150.0 1102179.0 3540.0
516399.0 1100666.0 3542.0
522670.0 1103796.0 3513.0
516411.0 1100416.0 3604.0
526397.0 1105496.0 3484.0
516812.0 1100398.0 3582.0
520247.0 1102029.0 3540.0
519034.0 1101435.0 3475.0
520150.0 1101821.0 3607.0
519301.0 1101203.0 3475.0
518945.0 1100896.0 3546.0
518021.0 1100180.0 3557.0
518685.0 1100354.0 3597.0
518300.0 1100164.0 3624.0
517551.0 1099781.0 3532.0
519868.0 1100733.0 3510.0
523846.0 1102463.0 3584.0
523115.0 1102064.0 3534.0
519507.0 1100206.0 3599.0
522695.0 1101639.0 3515.0
519521.0 1099978.0 3503.0
519191.0 1099782.0 3550.0
522552.0 1101335.0 3512.0
520499.0 1100249.0 3439.0
523426.0 1101443.0 3511.0
519472.0 1099380.0 3628.0
519084.0 1099216.0 3511.0
521588.0 1099950.0 3546.0
522604.0 1100205.0 3457.0
521034.0 1099330.0 3615.0
520672.0 1099228.0 3525.0
523546.0 1100443.0 3528.0
522775.0 1100028.0 3500.0
521241.0 1099227.0 3500.0
522058.0 1099375.0 3519.0
519720.0 1097950.0 3489.0
519915.0 1097866.0 3522.0
516956.0 1104662.0 3357.0
517270.0 1104653.0 3276.0
517716.0 1101214.0 3339.0
517600.0 1102418.0 3420.0
517574.0 1102961.0 3427.0
518040.0 1100402.0 3360.0
517905.0 1101600.0 3430.0
517877.0 1102816.0 3426.0
517898.0 1103391.0 3350.0
518230.0 1102858.0 3357.0
518977.0 1101842.0 3372.0
518758.0 1107159.0 3308.0
519177.0 1102390.0 3377.0
519589.0 1098286.0 3260.0
519415.0 1102505.0 3271.0
519617.0 1102175.0 3325.0
519549.0 1103838.0 3310.0
520144.0 1098363.0 3243.0
519923.0 1103764.0 3245.0
519703.0 1106768.0 3418.0
520016.0 1105058.0 3431.0
520528.0 1099325.0 3392.0
520600.0 1099888.0 3251.0
520229.0 1105718.0 3365.0
520215.0 1106299.0 3378.0
520513.0 1105637.0 3271.0
520427.0 1106228.0 3379.0
520992.0 1098780.0 3398.0
520977.0 1099342.0 3360.0
520674.0 1105881.0 3407.0
520647.0 1106402.0 3371.0
521216.0 1099795.0 3260.0
520962.0 1105177.0 3368.0
521480.0 1099849.0 3257.0
521679.0 1101006.0 3265.0
522012.0 1098872.0 3404.0
521709.0 1104798.0 3411.0
521713.0 1106582.0 3298.0
521535.0 1110694.0 3348.0
521862.0 1108875.0 3432.0
521863.0 1109410.0 3407.0
521750.0 1111215.0 3340.0
522559.0 1100043.0 3329.0
522366.0 1103759.0 3350.0
522351.0 1104405.0 3318.0
522254.0 1106777.0 3299.0
522148.0 1108665.0 3399.0
522122.0 1109297.0 3292.0
521990.0 1111027.0 3274.0
522677.0 1101976.0 3284.0
522569.0 1103710.0 3433.0
522323.0 1109244.0 3401.0
522968.0 1099632.0 3367.0
522803.0 1104557.0 3357.0
523186.0 1099931.0 3414.0
523439.0 1101108.0 3301.0
523052.0 1110712.0 3300.0
523988.0 1099394.0 3364.0
524021.0 1100044.0 3242.0
523710.0 1106983.0 3424.0
523644.0 1108840.0 3289.0
523602.0 1114708.0 3275.0
524393.0 1100616.0 3257.0
524234.0 1105570.0 3280.0
523824.0 1114516.0 3271.0
524387.0 1106901.0 3246.0
524106.0 1111262.0 3265.0
524081.0 1112431.0 3400.0
523689.0 1119036.0 3415.0
524568.0 1106112.0 3272.0
524536.0 1106665.0 3274.0
524472.0 1107720.0 3420.0
524163.0 1114417.0 3298.0
524017.0 1118276.0 3239.0
523894.0 1118777.0 3436.0
524720.0 1106709.0 3239.0
524656.0 1107918.0 3320.0
524406.0 1113404.0 3242.0
524357.0 1113965.0 3416.0
524425.0 1116459.0 3293.0
524354.0 1117692.0 3369.0
524365.0 1118290.0 3238.0
524988.0 1107758.0 3435.0
524544.0 1117726.0 3377.0
524512.0 1118794.0 3277.0
525299.0 1106287.0 3361.0
524851.0 1116515.0 3275.0
524911.0 1117077.0 3255.0
525771.0 1109185.0 3276.0
525173.0 1121178.0 3249.0
526129.0 1105572.0 3410.0
526061.0 1109285.0 3262.0
525622.0 1118819.0 3256.0
526350.0 1109385.0 3267.0
526355.0 1109957.0 3261.0
526107.0 1113697.0 3434.0
525895.0 1119158.0 3306.0
525660.0 1122754.0 3322.0
526614.0 1109802.0 3261.0
526148.0 1119775.0 3242.0
525978.0 1120815.0 3436.0
526803.0 1109443.0 3412.0
526461.0 1117904.0 3357.0
526234.0 1120882.0 3331.0
526179.0 1122125.0 3403.0
526189.0 1122650.0 3282.0
526847.0 1113761.0 3422.0
526921.0 1113675.0 3437.0
526856.0 1116980.0 3263.0
526553.0 1122967.0 3244.0
527342.0 1109486.0 3379.0
527212.0 1114361.0 3239.0
526982.0 1117945.0 3341.0
526752.0 1120934.0 3411.0
526801.0 1121492.0 3329.0
527251.0 1117680.0 3346.0
527128.0 1119469.0 3296.0
527394.0 1119875.0 3298.0
527281.0 1121481.0 3336.0
527919.0 1114117.0 3248.0
527682.0 1118910.0 3277.0
527530.0 1121323.0 3393.0
528091.0 1115803.0 3242.0
528254.0 1122473.0 3267.0
528193.0 1123096.0 3272.0
528760.0 1115233.0 3408.0
528635.0 1118905.0 3289.0
529017.0 1115284.0 3274.0
529383.0 1117524.0 3377.0
529369.0 1118149.0 3352.0
529600.0 1117582.0 3365.0
529386.0 1122544.0 3325.0
529357.0 1123623.0 3322.0
529675.0 1121555.0 3265.0
529567.0 1123891.0 3313.0
530261.0 1118408.0 3354.0
530227.0 1119700.0 3366.0
530588.0 1117481.0 3338.0
531132.0 1119505.0 3373.0
531480.0 1117695.0 3309.0
523842.0 1099327.0 3266.0
523764.0 1099467.0 3239.0
522410.0 1098892.0 3317.0
521830.0 1098856.0 3400.0
523106.0 1099651.0 3353.0
524446.0 1100437.0 3273.0
523171.0 1100033.0 3392.0
519592.0 1098127.0 3356.0
523156.0 1100408.0 3414.0
519660.0 1098458.0 3319.0
523497.0 1100880.0 3370.0
519862.0 1098815.0 3238.0
520670.0 1099322.0 3274.0
521425.0 1099866.0 3333.0
523507.0 1101146.0 3239.0
519752.0 1098943.0 3320.0
521319.0 1099914.0 3372.0
520409.0 1099599.0 3310.0
520700.0 1100073.0 3309.0
519685.0 1099866.0 3417.0
520438.0 1100326.0 3350.0
521314.0 1100786.0 3297.0
518862.0 1100486.0 3428.0
517765.0 1100332.0 3387.0
521471.0 1102492.0 3294.0
521813.0 1102777.0 3308.0
526343.0 1105503.0 3348.0
519113.0 1101469.0 3392.0
521966.0 1103155.0 3374.0
522362.0 1103385.0 3247.0
517067.0 1100570.0 3426.0
520120.0 1102329.0 3255.0
522313.0 1103694.0 3418.0
522704.0 1103908.0 3310.0
516581.0 1100607.0 3426.0
518699.0 1101846.0 3290.0
521539.0 1103514.0 3322.0
519213.0 1102428.0 3322.0
521601.0 1103865.0 3347.0
522382.0 1104363.0 3362.0
522796.0 1104602.0 3328.0
523166.0 1104895.0 3411.0
524004.0 1105404.0 3435.0
524437.0 1105599.0 3312.0
525177.0 1106085.0 3296.0
517806.0 1101861.0 3266.0
522101.0 1104409.0 3290.0
522988.0 1104949.0 3346.0
525100.0 1106294.0 3333.0
518476.0 1102449.0 3344.0
523323.0 1105352.0 3352.0
524934.0 1106358.0 3306.0
517405.0 1102105.0 3427.0
517830.0 1102502.0 3289.0
524696.0 1106622.0 3253.0
517587.0 1102630.0 3294.0
519621.0 1103896.0 3406.0
524541.0 1106764.0 3262.0
517495.0 1102902.0 3402.0
517913.0 1103533.0 3341.0
524351.0 1107413.0 3413.0
525240.0 1107922.0 3318.0
525668.0 1108211.0 3376.0
517762.0 1103818.0 3406.0
520620.0 1105501.0 3430.0
521028.0 1105730.0 3411.0
521462.0 1105943.0 3270.0
523450.0 1107161.0 3406.0
524714.0 1107901.0 3284.0
527154.0 1109454.0 3403.0
526244.0 1109175.0 3350.0
519338.0 1105284.0 3319.0
520198.0 1105804.0 3356.0
520611.0 1106044.0 3385.0
526646.0 1109592.0 3333.0
527039.0 1109900.0 3283.0
519877.0 1105863.0 3320.0
520300.0 1106104.0 3350.0
520677.0 1106356.0 3344.0
525955.0 1109465.0 3260.0
526789.0 1110004.0 3247.0
517174.0 1104568.0 3385.0
522328.0 1107593.0 3328.0
516984.0 1104667.0 3379.0
525165.0 1109583.0 3435.0
518360.0 1105688.0 3280.0
520346.0 1106916.0 3428.0
521175.0 1107420.0 3381.0
522824.0 1108364.0 3311.0
523236.0 1108661.0 3341.0
523633.0 1108872.0 3321.0
519860.0 1106818.0 3384.0
523533.0 1108935.0 3296.0
522478.0 1108753.0 3366.0
522217.0 1109163.0 3288.0
524409.0 1110445.0 3276.0
522048.0 1109329.0 3277.0
519053.0 1108434.0 3252.0
523460.0 1111031.0 3309.0
527706.0 1113867.0 3313.0
527833.0 1114176.0 3243.0
521394.0 1110709.0 3413.0
521818.0 1110908.0 3336.0
527439.0 1114220.0 3268.0
529016.0 1115270.0 3318.0
530264.0 1115994.0 3334.0
525936.0 1113586.0 3268.0
527098.0 1114291.0 3292.0
529914.0 1116026.0 3354.0
527025.0 1114480.0 3252.0
531312.0 1117191.0 3352.0
526765.0 1114586.0 3357.0
528785.0 1115835.0 3366.0
531251.0 1117394.0 3421.0
530752.0 1117301.0 3324.0
530519.0 1117293.0 3246.0
531380.0 1117842.0 3258.0
524275.0 1113877.0 3319.0
524303.0 1114221.0 3395.0
529503.0 1117312.0 3320.0
529903.0 1117511.0 3255.0
524113.0 1114331.0 3294.0
529199.0 1117412.0 3362.0
530380.0 1118367.0 3356.0
523704.0 1114553.0 3270.0
525283.0 1115508.0 3411.0
529261.0 1117851.0 3277.0
529235.0 1118027.0 3258.0
524657.0 1115561.0 3328.0
526244.0 1116819.0 3394.0
529426.0 1118714.0 3383.0
527293.0 1117730.0 3367.0
524466.0 1116473.0 3324.0
526885.0 1117872.0 3355.0
528496.0 1118875.0 3387.0
524951.0 1117097.0 3395.0
527698.0 1118727.0 3376.0
529058.0 1119866.0 3312.0
527276.0 1119149.0 3302.0
529206.0 1120389.0 3420.0
525120.0 1118289.0 3418.0
529574.0 1121085.0 3358.0
525113.0 1118668.0 3245.0
525917.0 1119150.0 3242.0
529575.0 1121335.0 3325.0
525083.0 1118839.0 3273.0
529964.0 1122015.0 3268.0
527727.0 1120881.0 3338.0
523618.0 1118758.0 3357.0
527502.0 1120959.0 3242.0
529135.0 1121915.0 3268.0
523541.0 1119049.0 3415.0
525685.0 1120234.0 3248.0
526065.0 1120425.0 3248.0
526887.0 1120976.0 3332.0
527327.0 1121183.0 3277.0
529077.0 1122126.0 3238.0
525719.0 1120545.0 3291.0
526857.0 1121547.0 3279.0
526780.0 1121906.0 3391.0
529288.0 1123356.0 3331.0
529262.0 1123561.0 3256.0
529637.0 1123829.0 3244.0
525808.0 1121858.0 3256.0
526012.0 1122229.0 3327.0
526047.0 1122526.0 3257.0
526456.0 1122774.0 3259.0
531500.0 1117465.0 3345.0
531248.0 1117378.0 3267.0
530207.0 1123317.0 3388.0
530217.0 1122853.0 3274.0
530371.0 1121312.0 3258.0
530841.0 1117381.0 3323.0
530061.0 1122960.0 3322.0
530203.0 1121367.0 3403.0
529855.0 1122360.0 3390.0
529449.0 1123847.0 3321.0
529580.0 1122349.0 3426.0
529182.0 1123515.0 3375.0
529659.0 1116124.0 3243.0
528596.0 1124309.0 3255.0
528014.0 1122883.0 3367.0
528347.0 1119170.0 3416.0
528500.0 1117546.0 3420.0
528347.0 1115609.0 3344.0
527544.0 1121376.0 3319.0
527334.0 1121122.0 3248.0
527580.0 1118951.0 3387.0
527132.0 1120866.0 3266.0
527302.0 1119225.0 3263.0
527722.0 1114837.0 3264.0
526801.0 1121313.0 3251.0
526865.0 1120817.0 3262.0
526447.0 1122904.0 3289.0
526545.0 1121282.0 3269.0
526829.0 1118007.0 3348.0
526583.0 1117941.0 3314.0
525867.0 1122881.0 3279.0
526087.0 1120354.0 3276.0
526246.0 1118805.0 3284.0
526606.0 1114832.0 3273.0
526679.0 1114353.0 3420.0
527153.0 1109476.0 3292.0
525693.0 1123040.0 3329.0
525883.0 1120419.0 3277.0
526160.0 1117165.0 3293.0
526226.0 1116633.0 3303.0
526281.0 1116091.0 3347.0
526899.0 1109748.0 3256.0
526973.0 1109279.0 3397.0
525661.0 1120689.0 3372.0
526161.0 1115271.0 3298.0
526264.0 1113600.0 3272.0
526796.0 1109337.0 3413.0
525371.0 1121403.0 3256.0
525563.0 1120911.0 3375.0
526189.0 1112961.0 3277.0
525943.0 1113615.0 3238.0
526337.0 1109407.0 3251.0
525076.0 1121230.0 3425.0
525496.0 1116263.0 3239.0
526216.0 1109185.0 3406.0
524840.0 1121106.0 3399.0
525083.0 1118030.0 3376.0
525912.0 1109482.0 3299.0
526292.0 1105601.0 3335.0
524655.0 1119505.0 3240.0
524783.0 1118460.0 3304.0
524935.0 1116841.0 3298.0
525674.0 1109358.0 3272.0
524566.0 1119582.0 3431.0
525903.0 1105486.0 3258.0
524599.0 1116213.0 3287.0
524653.0 1115695.0 3246.0
525605.0 1106303.0 3364.0
524246.0 1118430.0 3256.0
524444.0 1116317.0 3390.0
524508.0 1115775.0 3406.0
524759.0 1113076.0 3413.0
525253.0 1107874.0 3373.0
525440.0 1106273.0 3365.0
524257.0 1116444.0 3431.0
525054.0 1107809.0 3396.0
525193.0 1106170.0 3305.0
524093.0 1114346.0 3253.0
524142.0 1113835.0 3269.0
524748.0 1107960.0 3252.0
524918.0 1106437.0 3269.0
524984.0 1105933.0 3300.0
524083.0 1112190.0 3290.0
524567.0 1107904.0 3320.0
524713.0 1106386.0 3302.0
523744.0 1114733.0 3384.0
524421.0 1107560.0 3436.0
524509.0 1106472.0 3388.0
524277.0 1106037.0 3253.0
524363.0 1105562.0 3392.0
523626.0 1108836.0 3379.0
523621.0 1106525.0 3361.0
522788.0 1110574.0 3353.0
522960.0 1108393.0 3328.0
522510.0 1110732.0 3281.0
523455.0 1101282.0 3307.0
522434.0 1108871.0 3382.0
521945.0 1110941.0 3312.0
522213.0 1108690.0 3409.0
522511.0 1104344.0 3260.0
522661.0 1103279.0 3271.0
523059.0 1100039.0 3335.0
522136.0 1106241.0 3386.0
522235.0 1105293.0 3282.0
522372.0 1104293.0 3401.0
522424.0 1103835.0 3380.0
521219.0 1110413.0 3305.0
521959.0 1100807.0 3256.0
522159.0 1098860.0 3354.0
521476.0 1103848.0 3392.0
520908.0 1106800.0 3245.0
521096.0 1105194.0 3410.0
521367.0 1101942.0 3289.0
520736.0 1106161.0 3329.0
521409.0 1099681.0 3313.0
521491.0 1099202.0 3409.0
521539.0 1098709.0 3408.0
520490.0 1106233.0 3342.0
520929.0 1101955.0 3353.0
521194.0 1099389.0 3311.0
521304.0 1098832.0 3436.0
520275.0 1106179.0 3352.0
520799.0 1100765.0 3366.0
520918.0 1099645.0 3305.0
519998.0 1106177.0 3370.0
520165.0 1103711.0 3245.0
520396.0 1102231.0 3362.0
520630.0 1099779.0 3314.0
520656.0 1099290.0 3294.0
520739.0 1098836.0 3313.0
520574.0 1098259.0 3387.0
519503.0 1106728.0 3389.0
519608.0 1105094.0 3318.0
519409.0 1105200.0 3286.0
520050.0 1098320.0 3293.0
519472.0 1101417.0 3238.0
519893.0 1098201.0 3382.0
518817.0 1107153.0 3423.0
519568.0 1098955.0 3343.0
518765.0 1104389.0 3333.0
519074.0 1101409.0 3370.0
518638.0 1104404.0 3408.0
518731.0 1102756.0 3318.0
518672.0 1102523.0 3434.0
518165.0 1103467.0 3256.0
518239.0 1102944.0 3327.0
518009.0 1103116.0 3339.0
518067.0 1101972.0 3240.0
517820.0 1103071.0 3357.0
517912.0 1102063.0 3314.0
517695.0 1102283.0 3379.0
517455.0 1102159.0 3262.0
529222.0 1123874.0 3321.0
528861.0 1123302.0 3284.0
528003.0 1122821.0 3323.0
525450.0 1121490.0 3290.0
525027.0 1121196.0 3413.0
524604.0 1121019.0 3273.0
528924.0 1123108.0 3257.0
528029.0 1122753.0 3342.0
525688.0 1121383.0 3280.0
525287.0 1121138.0 3328.0
524861.0 1120899.0 3435.0
528308.0 1122286.0 3277.0
526682.0 1121365.0 3290.0
525416.0 1120660.0 3392.0
530031.0 1122881.0 3382.0
529680.0 1122659.0 3431.0
527266.0 1121396.0 3381.0
526088.0 1120743.0 3348.0
527499.0 1121254.0 3275.0
529511.0 1121759.0 3416.0
526215.0 1120058.0 3312.0
529781.0 1121732.0 3395.0
529654.0 1121474.0 3243.0
524226.0 1118531.0 3281.0
529430.0 1120997.0 3410.0
527773.0 1120131.0 3348.0
530232.0 1121112.0 3322.0
526362.0 1119054.0 3272.0
530342.0 1120928.0 3278.0
526220.0 1118700.0 3310.0
525823.0 1118412.0 3366.0
527437.0 1119000.0 3381.0
524268.0 1116507.0 3419.0
528558.0 1118681.0 3248.0
526970.0 1117839.0 3252.0
530264.0 1119244.0 3405.0
524433.0 1116206.0 3319.0
531153.0 1119617.0 3331.0
530411.0 1119190.0 3403.0
529608.0 1118727.0 3400.0
529214.0 1118546.0 3282.0
524509.0 1116041.0 3317.0
528187.0 1117752.0 3375.0
527548.0 1117209.0 3347.0
529045.0 1117396.0 3332.0
525056.0 1115310.0 3264.0
529972.0 1117614.0 3390.0
527018.0 1116086.0 3302.0
526230.0 1115650.0 3295.0
530417.0 1117621.0 3360.0
530761.0 1117552.0 3399.0
528088.0 1116129.0 3291.0
524191.0 1114108.0 3328.0
530874.0 1117445.0 3349.0
524289.0 1113933.0 3405.0
531383.0 1117452.0 3312.0
529819.0 1116659.0 3262.0
528250.0 1115798.0 3390.0
526495.0 1114584.0 3429.0
527590.0 1114913.0 3242.0
521793.0 1111520.0 3247.0
526468.0 1113704.0 3328.0
524129.0 1112415.0 3402.0
521743.0 1111131.0 3394.0
521862.0 1110988.0 3361.0
526867.0 1113481.0 3274.0
522132.0 1110895.0 3296.0
530784.0 1115192.0 3398.0
523057.0 1110911.0 3290.0
523110.0 1109615.0 3345.0
522343.0 1109170.0 3337.0
522257.0 1108984.0 3360.0
521470.0 1108563.0 3410.0
522487.0 1108647.0 3302.0
519763.0 1107184.0 3306.0
523567.0 1108862.0 3380.0
519780.0 1106810.0 3402.0
521230.0 1107284.0 3378.0
520073.0 1106271.0 3404.0
526950.0 1109744.0 3254.0
526137.0 1109345.0 3285.0
520711.0 1106397.0 3321.0
520296.0 1106173.0 3352.0
519907.0 1105966.0 3417.0
517323.0 1104620.0 3258.0
527394.0 1109683.0 3316.0
526966.0 1109523.0 3310.0
520682.0 1106100.0 3429.0
520237.0 1105949.0 3303.0
517454.0 1104464.0 3293.0
520867.0 1106020.0 3404.0
520430.0 1105874.0 3308.0
524446.0 1107615.0 3430.0
519475.0 1105015.0 3416.0
519091.0 1104789.0 3277.0
523521.0 1106591.0 3320.0
521566.0 1105614.0 3267.0
518800.0 1104089.0 3346.0
518057.0 1103627.0 3401.0
522143.0 1105651.0 3271.0
518373.0 1103627.0 3313.0
517561.0 1103158.0 3388.0
524734.0 1106763.0 3276.0
517929.0 1103132.0 3352.0
517520.0 1102906.0 3364.0
524128.0 1106249.0 3333.0
518212.0 1103105.0 3298.0
517484.0 1102682.0 3390.0
525066.0 1106519.0 3295.0
524653.0 1106277.0 3344.0
524195.0 1106104.0 3242.0
521341.0 1104561.0 3331.0
520107.0 1103825.0 3370.0
517529.0 1102530.0 3349.0
525004.0 1106308.0 3294.0
524590.0 1106130.0 3251.0
517574.0 1102322.0 3358.0
525543.0 1106279.0 3408.0
525137.0 1106049.0 3391.0
524398.0 1105645.0 3394.0
517769.0 1102195.0 3324.0
522807.0 1104551.0 3406.0
522426.0 1104309.0 3386.0
522297.0 1103957.0 3336.0
526165.0 1105626.0 3433.0
525794.0 1105506.0 3326.0
520573.0 1102307.0 3250.0
523580.0 1103694.0 3287.0
521687.0 1102626.0 3416.0
519326.0 1101444.0 3332.0
517404.0 1100404.0 3410.0
521717.0 1102559.0 3246.0
522124.0 1102239.0 3363.0
519833.0 1100990.0 3422.0
517908.0 1100014.0 3387.0
523089.0 1101855.0 3433.0
520301.0 1100456.0 3335.0
522944.0 1101563.0 3288.0
519626.0 1099811.0 3368.0
518817.0 1099365.0 3415.0
523065.0 1101368.0 3344.0
520717.0 1099914.0 3246.0
519547.0 1099231.0 3406.0
523001.0 1100445.0 3400.0
521379.0 1099653.0 3321.0
523258.0 1100091.0 3292.0
522864.0 1099827.0 3423.0
521628.0 1099224.0 3345.0
521239.0 1098981.0 3437.0
519939.0 1098380.0 3264.0
519561.0 1098114.0 3314.0
523247.0 1099837.0 3309.0
522909.0 1099653.0 3291.0
522495.0 1099441.0 3356.0
521714.0 1099080.0 3275.0
521341.0 1098799.0 3428.0
