536238.0 1151040.0 3865.0
535773.0 1155222.0 3899.0
535334.0 1155149.0 3886.0
534114.0 1160815.0 3944.0
534149.0 1160312.0 4020.0
534205.0 1157912.0 3891.0
533931.0 1160529.0 3924.0
533993.0 1158184.0 3919.0
533866.0 1158511.0 3945.0
533895.0 1157994.0 4025.0
533681.0 1158856.0 3972.0
532705.0 1148901.0 3991.0
532489.0 1148539.0 4004.0
531588.0 1161049.0 3915.0
531560.0 1152474.0 3847.0
531664.0 1150883.0 3939.0
531738.0 1149793.0 3887.0
531650.0 1148521.0 3911.0
530937.0 1156179.0 4032.0
531081.0 1152341.0 3871.0
531112.0 1150733.0 3864.0
530928.0 1151044.0 3937.0
531063.0 1148786.0 3914.0
530465.0 1150823.0 3838.0
530310.0 1150917.0 3952.0
529901.0 1156187.0 3917.0
529680.0 1150333.0 3901.0
529537.0 1150017.0 3928.0
536254.0 1161768.0 4023.0
536281.0 1161598.0 4001.0
536527.0 1161547.0 3911.0
536470.0 1161308.0 3851.0
536472.0 1161068.0 3869.0
536468.0 1160797.0 3932.0
527873.0 1155542.0 4009.0
529835.0 1156176.0 3970.0
529426.0 1155890.0 3995.0
533832.0 1158239.0 4032.0
530110.0 1156078.0 3873.0
529299.0 1155551.0 3914.0
528115.0 1154855.0 3866.0
537740.0 1160351.0 3868.0
537387.0 1160095.0 4010.0
535377.0 1158904.0 4004.0
538230.0 1160200.0 3859.0
537829.0 1159950.0 3870.0
534182.0 1157777.0 3987.0
539279.0 1160592.0 3997.0
538889.0 1160343.0 4000.0
538476.0 1160128.0 3880.0
537714.0 1159687.0 3937.0
535892.0 1158074.0 3999.0
530622.0 1154978.0 3855.0
537905.0 1158804.0 3860.0
537699.0 1158450.0 3962.0
537869.0 1158362.0 3972.0
537514.0 1158150.0 3840.0
537405.0 1157840.0 3840.0
538510.0 1158151.0 4014.0
537276.0 1157481.0 3883.0
529338.0 1152478.0 3867.0
539697.0 1158292.0 3856.0
537408.0 1156671.0 3964.0
538168.0 1156710.0 3912.0
537313.0 1156176.0 4028.0
535594.0 1155230.0 3900.0
539690.0 1157529.0 3842.0
536070.0 1155329.0 4000.0
531555.0 1152682.0 3882.0
538219.0 1156431.0 3969.0
537427.0 1155915.0 4009.0
536207.0 1155231.0 3943.0
536514.0 1155143.0 3941.0
537031.0 1155156.0 3932.0
530553.0 1151347.0 3965.0
530185.0 1151093.0 3954.0
530632.0 1151142.0 3852.0
530260.0 1150904.0 3934.0
529493.0 1150424.0 4019.0
528700.0 1150014.0 3939.0
537835.0 1155113.0 3904.0
531018.0 1151122.0 3898.0
529731.0 1150375.0 3883.0
531765.0 1151308.0 3919.0
531350.0 1151093.0 3872.0
530949.0 1150850.0 3875.0
531633.0 1150958.0 3957.0
531210.0 1150784.0 3865.0
530821.0 1150519.0 3998.0
529561.0 1149771.0 3960.0
540159.0 1155477.0 3974.0
529607.0 1149391.0 3855.0
532369.0 1150598.0 4018.0
538515.0 1153892.0 3892.0
540859.0 1154372.0 3876.0
540476.0 1154174.0 3916.0
540717.0 1154008.0 4025.0
539390.0 1153192.0 3887.0
541246.0 1153848.0 4003.0
536446.0 1151176.0 3921.0
531983.0 1148661.0 3891.0
541085.0 1153496.0 4012.0
532773.0 1148819.0 3944.0
537169.0 1151011.0 3921.0
539076.0 1151533.0 3942.0
538785.0 1151130.0 4004.0
540953.0 1152078.0 3949.0
540962.0 1151834.0 3849.0
527554.0 1155605.0 3776.0
528782.0 1150291.0 3803.0
528309.0 1155114.0 3711.0
528851.0 1152794.0 3794.0
529518.0 1153042.0 3672.0
530022.0 1149959.0 3774.0
530245.0 1150496.0 3675.0
530377.0 1151330.0 3659.0
530672.0 1150223.0 3668.0
531058.0 1152208.0 3762.0
531710.0 1149926.0 3647.0
531393.0 1152423.0 3793.0
531362.0 1153483.0 3653.0
531128.0 1155004.0 3780.0
531094.0 1155501.0 3718.0
531023.0 1155996.0 3817.0
532046.0 1149263.0 3676.0
531437.0 1155258.0 3708.0
532318.0 1148719.0 3813.0
532015.0 1152063.0 3721.0
531761.0 1154882.0 3759.0
532367.0 1151170.0 3731.0
531936.0 1155190.0 3748.0
532506.0 1154339.0 3762.0
531902.0 1160923.0 3658.0
531771.0 1161451.0 3680.0
532739.0 1155595.0 3659.0
533028.0 1155438.0 3720.0
533917.0 1149837.0 3665.0
533296.0 1155515.0 3815.0
533720.0 1154011.0 3713.0
533315.0 1160200.0 3645.0
533668.0 1159367.0 3642.0
534048.0 1160897.0 3684.0
536459.0 1150987.0 3752.0
537233.0 1156805.0 3821.0
538072.0 1159369.0 3795.0
538828.0 1153309.0 3739.0
538754.0 1153849.0 3833.0
539224.0 1153203.0 3813.0
538891.0 1160051.0 3806.0
539181.0 1159419.0 3665.0
539133.0 1159948.0 3655.0
539090.0 1161057.0 3673.0
539842.0 1157715.0 3739.0
539645.0 1159826.0 3684.0
540499.0 1151484.0 3741.0
539953.0 1158304.0 3689.0
540614.0 1151383.0 3806.0
532248.0 1148172.0 3808.0
532076.0 1148308.0 3815.0
532450.0 1148440.0 3659.0
531122.0 1148623.0 3748.0
538988.0 1153243.0 3709.0
538631.0 1153321.0 3730.0
531722.0 1150234.0 3794.0
532742.0 1150954.0 3775.0
532421.0 1151045.0 3749.0
530806.0 1150447.0 3740.0
530630.0 1150522.0 3659.0
534672.0 1153057.0 3660.0
528640.0 1150129.0 3727.0
536842.0 1154529.0 3672.0
530372.0 1151291.0 3659.0
531927.0 1152091.0 3689.0
531439.0 1152204.0 3793.0
530980.0 1152217.0 3724.0
531397.0 1152454.0 3794.0
529790.0 1152248.0 3748.0
531431.0 1153324.0 3641.0
532259.0 1153837.0 3799.0
532647.0 1154100.0 3830.0
539823.0 1157848.0 3723.0
529607.0 1152597.0 3728.0
531530.0 1153630.0 3818.0
539829.0 1158115.0 3768.0
528972.0 1152782.0 3750.0
529405.0 1152902.0 3665.0
539638.0 1158474.0 3814.0
528979.0 1152956.0 3677.0
532063.0 1154625.0 3726.0
539537.0 1158647.0 3722.0
531550.0 1154692.0 3804.0
531947.0 1154870.0 3720.0
533118.0 1155524.0 3802.0
531435.0 1154889.0 3722.0
531806.0 1155101.0 3740.0
532658.0 1155546.0 3686.0
539284.0 1159087.0 3690.0
531568.0 1155253.0 3707.0
537548.0 1158439.0 3803.0
539521.0 1159537.0 3704.0
531172.0 1155287.0 3711.0
539339.0 1159634.0 3682.0
528837.0 1154393.0 3662.0
530898.0 1155423.0 3733.0
531297.0 1155610.0 3670.0
535313.0 1157820.0 3758.0
539067.0 1159782.0 3692.0
539476.0 1160021.0 3773.0
539832.0 1160321.0 3831.0
530806.0 1155666.0 3754.0
531168.0 1155796.0 3696.0
535818.0 1158362.0 3761.0
538615.0 1159808.0 3655.0
528582.0 1154861.0 3756.0
530850.0 1155986.0 3819.0
538052.0 1159866.0 3820.0
538900.0 1160289.0 3774.0
528523.0 1155000.0 3647.0
537898.0 1160020.0 3837.0
538295.0 1160216.0 3774.0
527919.0 1155051.0 3671.0
528301.0 1155147.0 3645.0
538048.0 1160364.0 3738.0
538890.0 1160752.0 3692.0
533928.0 1158677.0 3829.0
533856.0 1158842.0 3785.0
536617.0 1160335.0 3764.0
531080.0 1157598.0 3678.0
533742.0 1159011.0 3744.0
536852.0 1160682.0 3800.0
536292.0 1160547.0 3712.0
533817.0 1160449.0 3824.0
534152.0 1160898.0 3711.0
531849.0 1160764.0 3767.0
531551.0 1161003.0 3721.0
531647.0 1161334.0 3663.0
540595.0 1154315.0 3670.0
540830.0 1151440.0 3730.0
539848.0 1158563.0 3647.0
539863.0 1157974.0 3653.0
539544.0 1160577.0 3725.0
539731.0 1158206.0 3832.0
539740.0 1157649.0 3750.0
539625.0 1153664.0 3666.0
539051.0 1160065.0 3700.0
538888.0 1159899.0 3674.0
539132.0 1156207.0 3756.0
539138.0 1153352.0 3702.0
538530.0 1159934.0 3799.0
538278.0 1159919.0 3805.0
538729.0 1152953.0 3791.0
538012.0 1159970.0 3815.0
538012.0 1159403.0 3728.0
538035.0 1158824.0 3703.0
537466.0 1160507.0 3821.0
536975.0 1160841.0 3756.0
536797.0 1161131.0 3803.0
535498.0 1159865.0 3792.0
535555.0 1158665.0 3757.0
535330.0 1157780.0 3670.0
535174.0 1157867.0 3837.0
534288.0 1160579.0 3761.0
534600.0 1153013.0 3650.0
533902.0 1158748.0 3746.0
533648.0 1160669.0 3651.0
533752.0 1159060.0 3755.0
533335.0 1160075.0 3657.0
533846.0 1149851.0 3640.0
532863.0 1149625.0 3807.0
532310.0 1154115.0 3703.0
531831.0 1161157.0 3652.0
532301.0 1150906.0 3798.0
532334.0 1149063.0 3690.0
531679.0 1161139.0 3806.0
531730.0 1160646.0 3762.0
532197.0 1148625.0 3695.0
531969.0 1149772.0 3736.0
532042.0 1148588.0 3690.0
531519.0 1151938.0 3756.0
531311.0 1152563.0 3729.0
531410.0 1151963.0 3807.0
530989.0 1155815.0 3661.0
531165.0 1152185.0 3753.0
531240.0 1150991.0 3776.0
530825.0 1155602.0 3677.0
531000.0 1153402.0 3772.0
531117.0 1149098.0 3790.0
531229.0 1148651.0 3779.0
530641.0 1155755.0 3735.0
530654.0 1150724.0 3775.0
530767.0 1148936.0 3820.0
529840.0 1150303.0 3649.0
529667.0 1149703.0 3678.0
536986.0 1160849.0 3771.0
533799.0 1158969.0 3769.0
527761.0 1155274.0 3769.0
528075.0 1155172.0 3802.0
528451.0 1155114.0 3729.0
530470.0 1156038.0 3803.0
528404.0 1154837.0 3726.0
537726.0 1160141.0 3820.0
530725.0 1156000.0 3728.0
530822.0 1155894.0 3660.0
530442.0 1155594.0 3819.0
538082.0 1159941.0 3820.0
531234.0 1155924.0 3713.0
530830.0 1155708.0 3668.0
529630.0 1154911.0 3819.0
539219.0 1160353.0 3724.0
538786.0 1160092.0 3801.0
537940.0 1159621.0 3818.0
539078.0 1160050.0 3652.0
539415.0 1160020.0 3689.0
530696.0 1154773.0 3823.0
529861.0 1154358.0 3646.0
530996.0 1154774.0 3750.0
538094.0 1158787.0 3674.0
531124.0 1154647.0 3741.0
531784.0 1154842.0 3726.0
528925.0 1153056.0 3816.0
532183.0 1154860.0 3669.0
531764.0 1154578.0 3766.0
529130.0 1152960.0 3769.0
531954.0 1154407.0 3835.0
529111.0 1152739.0 3766.0
539699.0 1158599.0 3819.0
537332.0 1157241.0 3786.0
539802.0 1158141.0 3723.0
538607.0 1157437.0 3758.0
539714.0 1157864.0 3734.0
529700.0 1152018.0 3728.0
539824.0 1157785.0 3658.0
538474.0 1156804.0 3733.0
535622.0 1155148.0 3821.0
531127.0 1152470.0 3734.0
531348.0 1152485.0 3762.0
531323.0 1152168.0 3782.0
531725.0 1152194.0 3709.0
531364.0 1151880.0 3809.0
531425.0 1151711.0 3686.0
530533.0 1150888.0 3768.0
535397.0 1153539.0 3710.0
530520.0 1150678.0 3755.0
529739.0 1150163.0 3786.0
529921.0 1150123.0 3726.0
529685.0 1149693.0 3743.0
532408.0 1151076.0 3747.0
531669.0 1150049.0 3654.0
538899.0 1153849.0 3736.0
530862.0 1149182.0 3762.0
531295.0 1149167.0 3740.0
530902.0 1148951.0 3793.0
531481.0 1149130.0 3682.0
531069.0 1148867.0 3762.0
540712.0 1154266.0 3759.0
539152.0 1153342.0 3734.0
532648.0 1149657.0 3790.0
531375.0 1148965.0 3639.0
539827.0 1153686.0 3765.0
539066.0 1153213.0 3741.0
533912.0 1150203.0 3814.0
532664.0 1149543.0 3785.0
533886.0 1150069.0 3671.0
537182.0 1151661.0 3814.0
533961.0 1149917.0 3653.0
532339.0 1148931.0 3723.0
536314.0 1150913.0 3722.0
532349.0 1148647.0 3784.0
541360.0 1153461.0 3760.0
532948.0 1148690.0 3802.0
537141.0 1150861.0 3647.0
540968.0 1151630.0 3645.0
540602.0 1151356.0 3743.0
527696.0 1155133.0 3626.0
528926.0 1149729.0 3536.0
528757.0 1154482.0 3554.0
528700.0 1154985.0 3552.0
529037.0 1154756.0 3626.0
529409.0 1154726.0 3466.0
529916.0 1151620.0 3517.0
529620.0 1154430.0 3595.0
529597.0 1154905.0 3482.0
530017.0 1152028.0 3605.0
529909.0 1153051.0 3616.0
530273.0 1151573.0 3461.0
530076.0 1153176.0 3584.0
529932.0 1154747.0 3448.0
530657.0 1149131.0 3584.0
530149.0 1153513.0 3628.0
530566.0 1152262.0 3441.0
530454.0 1153285.0 3457.0
530868.0 1151651.0 3473.0
530796.0 1152153.0 3630.0
531107.0 1152791.0 3454.0
531659.0 1150428.0 3571.0
531204.0 1157994.0 3617.0
531813.0 1155443.0 3548.0
532136.0 1154738.0 3556.0
531507.0 1160643.0 3554.0
532236.0 1155097.0 3617.0
532525.0 1154900.0 3592.0
532476.0 1155439.0 3614.0
532832.0 1155127.0 3550.0
532190.0 1161111.0 3535.0
532425.0 1161317.0 3554.0
532796.0 1161129.0 3546.0
534103.0 1149851.0 3581.0
533454.0 1157032.0 3586.0
533185.0 1160090.0 3475.0
533471.0 1159703.0 3447.0
533308.0 1160736.0 3485.0
533557.0 1159496.0 3633.0
534399.0 1152836.0 3598.0
534279.0 1154379.0 3541.0
533878.0 1158932.0 3476.0
533598.0 1160901.0 3537.0
533788.0 1160859.0 3523.0
534682.0 1161194.0 3451.0
535494.0 1157743.0 3530.0
536658.0 1149405.0 3529.0
536099.0 1158850.0 3606.0
536135.0 1159393.0 3522.0
537233.0 1150149.0 3455.0
536318.0 1159923.0 3622.0
537487.0 1150284.0 3466.0
538267.0 1153572.0 3487.0
538469.0 1153577.0 3534.0
538206.0 1156972.0 3556.0
538677.0 1153616.0 3532.0
538399.0 1159541.0 3588.0
538591.0 1159520.0 3567.0
538800.0 1159563.0 3562.0
538762.0 1160127.0 3482.0
538985.0 1159530.0 3626.0
538904.0 1160563.0 3634.0
539887.0 1153767.0 3621.0
539438.0 1159512.0 3635.0
539581.0 1161302.0 3484.0
539803.0 1160528.0 3564.0
534027.0 1149493.0 3530.0
531553.0 1149027.0 3484.0
540220.0 1154195.0 3483.0
538505.0 1153559.0 3527.0
540059.0 1154400.0 3466.0
537967.0 1153517.0 3506.0
531590.0 1150216.0 3489.0
531329.0 1150359.0 3444.0
531653.0 1150559.0 3540.0
532507.0 1151257.0 3570.0
537086.0 1154294.0 3540.0
528500.0 1150185.0 3521.0
529964.0 1151056.0 3618.0
530764.0 1151449.0 3531.0
534666.0 1153524.0 3567.0
530378.0 1151475.0 3466.0
530751.0 1151715.0 3597.0
534598.0 1153758.0 3592.0
530162.0 1151714.0 3502.0
530079.0 1152017.0 3547.0
531282.0 1152656.0 3589.0
539985.0 1157339.0 3520.0
530662.0 1152542.0 3509.0
531016.0 1152756.0 3442.0
532149.0 1153455.0 3573.0
538470.0 1156812.0 3462.0
540013.0 1157627.0 3456.0
538094.0 1156882.0 3599.0
538494.0 1157052.0 3589.0
531233.0 1153387.0 3585.0
529677.0 1152832.0 3622.0
530025.0 1153044.0 3589.0
531257.0 1153614.0 3589.0
540054.0 1158402.0 3576.0
540058.0 1158600.0 3525.0
532487.0 1154771.0 3547.0
532892.0 1154949.0 3488.0
533277.0 1155177.0 3541.0
532766.0 1155220.0 3591.0
532302.0 1155211.0 3468.0
531232.0 1155038.0 3599.0
532021.0 1155390.0 3509.0
531577.0 1155450.0 3602.0
531977.0 1155609.0 3477.0
538185.0 1158916.0 3446.0
538949.0 1159391.0 3596.0
529672.0 1154738.0 3498.0
538290.0 1159285.0 3478.0
538675.0 1159503.0 3524.0
528510.0 1154419.0 3462.0
528859.0 1154637.0 3623.0
535493.0 1158030.0 3524.0
527888.0 1154418.0 3551.0
528148.0 1154858.0 3587.0
535893.0 1158782.0 3542.0
539268.0 1160940.0 3547.0
527712.0 1155075.0 3494.0
536138.0 1159523.0 3551.0
536254.0 1160015.0 3474.0
536472.0 1160367.0 3629.0
533768.0 1159243.0 3576.0
533587.0 1159461.0 3564.0
533072.0 1159933.0 3506.0
533359.0 1160458.0 3617.0
534577.0 1161060.0 3537.0
534944.0 1161207.0 3476.0
533135.0 1160612.0 3472.0
533512.0 1160801.0 3463.0
534286.0 1161192.0 3438.0
533355.0 1161050.0 3452.0
531514.0 1160495.0 3595.0
532723.0 1161030.0 3487.0
531969.0 1160960.0 3618.0
532363.0 1161114.0 3480.0
531928.0 1161230.0 3576.0
531625.0 1161537.0 3627.0
541004.0 1151605.0 3585.0
540039.0 1158111.0 3521.0
540257.0 1154435.0 3460.0
540230.0 1152311.0 3510.0
539505.0 1159980.0 3505.0
539563.0 1159386.0 3495.0
539942.0 1154136.0 3499.0
540087.0 1152420.0 3602.0
539384.0 1160292.0 3590.0
539375.0 1159801.0 3564.0
539391.0 1159272.0 3535.0
539192.0 1159920.0 3613.0
539199.0 1159357.0 3519.0
539004.0 1159461.0 3503.0
539224.0 1155992.0 3474.0
539417.0 1153658.0 3539.0
538882.0 1159386.0 3495.0
538627.0 1156954.0 3579.0
538837.0 1153449.0 3553.0
538885.0 1152925.0 3443.0
538358.0 1156651.0 3465.0
538554.0 1153490.0 3510.0
538262.0 1153620.0 3510.0
537885.0 1155662.0 3463.0
537524.0 1149799.0 3500.0
537306.0 1150462.0 3542.0
537345.0 1149961.0 3508.0
537148.0 1150357.0 3453.0
537220.0 1149823.0 3525.0
536415.0 1159903.0 3634.0
537029.0 1149887.0 3501.0
536250.0 1159812.0 3551.0
536202.0 1159303.0 3484.0
536688.0 1149454.0 3474.0
535876.0 1158763.0 3509.0
535597.0 1160021.0 3526.0
534555.0 1153556.0 3598.0
534077.0 1158467.0 3605.0
533725.0 1161155.0 3449.0
533460.0 1160640.0 3581.0
533513.0 1159454.0 3516.0
533111.0 1159911.0 3517.0
533652.0 1149561.0 3614.0
533089.0 1148682.0 3529.0
532233.0 1160981.0 3474.0
532837.0 1148570.0 3567.0
532003.0 1161148.0 3551.0
532386.0 1151169.0 3584.0
531779.0 1155632.0 3467.0
532004.0 1150793.0 3564.0
532186.0 1148148.0 3597.0
531790.0 1152091.0 3569.0
531945.0 1149168.0 3591.0
531673.0 1150126.0 3529.0
531870.0 1148362.0 3553.0
531396.0 1150222.0 3478.0
531037.0 1152762.0 3447.0
530142.0 1151483.0 3600.0
528331.0 1155116.0 3627.0
532107.0 1161517.0 3439.0
531919.0 1161081.0 3618.0
532790.0 1160843.0 3501.0
533578.0 1161125.0 3453.0
533786.0 1161053.0 3494.0
533374.0 1160823.0 3497.0
533867.0 1160844.0 3610.0
533434.0 1160604.0 3600.0
533653.0 1160658.0 3554.0
527617.0 1155000.0 3546.0
536209.0 1159900.0 3467.0
539267.0 1161360.0 3535.0
536147.0 1159459.0 3621.0
539564.0 1160961.0 3443.0
535970.0 1158871.0 3517.0
539577.0 1160680.0 3550.0
529663.0 1154830.0 3460.0
539812.0 1160615.0 3441.0
539463.0 1160330.0 3566.0
531347.0 1155559.0 3557.0
539033.0 1159799.0 3572.0
531831.0 1155610.0 3481.0
531454.0 1155362.0 3535.0
539521.0 1159901.0 3475.0
539144.0 1159646.0 3564.0
531807.0 1155378.0 3457.0
539294.0 1159529.0 3570.0
538885.0 1159332.0 3445.0
532347.0 1155462.0 3539.0
531950.0 1155150.0 3635.0
539408.0 1159428.0 3490.0
532549.0 1155399.0 3516.0
532147.0 1155186.0 3534.0
532709.0 1155003.0 3442.0
532332.0 1154703.0 3631.0
529442.0 1152944.0 3589.0
532856.0 1154802.0 3446.0
532483.0 1154517.0 3547.0
539417.0 1157926.0 3598.0
540047.0 1158141.0 3540.0
530028.0 1152224.0 3600.0
540171.0 1158079.0 3452.0
531164.0 1152855.0 3454.0
529877.0 1151977.0 3627.0
533554.0 1154023.0 3626.0
530640.0 1152356.0 3445.0
529838.0 1151850.0 3568.0
530912.0 1152273.0 3615.0
534563.0 1153877.0 3593.0
534958.0 1153855.0 3507.0
534571.0 1153600.0 3599.0
539067.0 1155980.0 3443.0
533988.0 1153008.0 3575.0
537001.0 1154509.0 3540.0
534574.0 1153124.0 3508.0
530095.0 1150473.0 3482.0
528890.0 1149754.0 3596.0
532010.0 1150857.0 3525.0
538008.0 1153789.0 3467.0
538478.0 1153659.0 3567.0
538780.0 1153626.0 3439.0
538747.0 1153329.0 3605.0
539510.0 1153621.0 3613.0
538715.0 1153187.0 3586.0
530988.0 1148773.0 3621.0
531423.0 1148899.0 3516.0
531086.0 1148686.0 3629.0
534286.0 1149873.0 3487.0
533912.0 1149638.0 3460.0
531877.0 1148478.0 3440.0
536723.0 1150904.0 3513.0
532474.0 1148489.0 3553.0
537922.0 1151375.0 3493.0
533088.0 1148633.0 3444.0
537270.0 1150204.0 3461.0
537365.0 1149977.0 3447.0
540916.0 1151416.0 3557.0
528180.0 1154488.0 3353.0
530410.0 1150493.0 3430.0
530262.0 1152145.0 3347.0
530069.0 1154275.0 3337.0
530455.0 1151920.0 3347.0
530398.0 1152421.0 3300.0
530142.0 1154622.0 3389.0
530583.0 1152792.0 3249.0
531049.0 1150548.0 3328.0
530817.0 1152752.0 3368.0
530669.0 1154359.0 3327.0
531413.0 1150010.0 3297.0
531351.0 1150534.0 3388.0
531086.0 1153345.0 3370.0
531062.0 1153907.0 3264.0
531939.0 1148375.0 3356.0
531480.0 1153005.0 3373.0
531607.0 1157669.0 3388.0
531833.0 1157709.0 3393.0
532099.0 1157735.0 3270.0
532331.0 1157694.0 3364.0
532345.0 1160627.0 3313.0
533173.0 1154890.0 3401.0
532704.0 1160305.0 3251.0
532569.0 1160843.0 3436.0
532915.0 1160580.0 3415.0
534300.0 1149326.0 3356.0
534493.0 1149241.0 3303.0
534396.0 1149801.0 3418.0
533296.0 1161282.0 3408.0
534593.0 1149397.0 3280.0
533755.0 1158975.0 3352.0
533460.0 1161170.0 3434.0
534711.0 1149293.0 3353.0
533578.0 1161423.0 3413.0
534467.0 1154382.0 3422.0
533976.0 1159255.0 3320.0
533794.0 1161425.0 3397.0
534053.0 1160783.0 3386.0
533960.0 1161337.0 3427.0
533914.0 1161879.0 3363.0
535266.0 1150621.0 3339.0
534209.0 1161426.0 3404.0
534412.0 1161546.0 3362.0
536464.0 1149482.0 3271.0
535717.0 1157469.0 3371.0
536138.0 1159923.0 3432.0
537239.0 1150752.0 3335.0
537510.0 1150738.0 3331.0
537961.0 1153813.0 3399.0
538644.0 1160054.0 3360.0
539545.0 1154309.0 3253.0
538979.0 1161068.0 3341.0
540175.0 1152031.0 3250.0
539353.0 1161184.0 3428.0
539671.0 1160834.0 3386.0
540501.0 1152045.0 3436.0
540430.0 1151812.0 3416.0
535897.0 1149484.0 3275.0
531546.0 1149648.0 3352.0
538922.0 1153730.0 3374.0
539330.0 1153896.0 3257.0
539627.0 1154341.0 3301.0
540008.0 1154560.0 3377.0
537951.0 1153657.0 3358.0
539951.0 1154730.0 3264.0
540283.0 1154929.0 3300.0
537639.0 1153705.0 3270.0
530099.0 1149877.0 3430.0
533835.0 1151860.0 3250.0
537174.0 1153705.0 3299.0
537566.0 1153852.0 3255.0
538975.0 1154961.0 3315.0
539330.0 1155209.0 3435.0
536758.0 1153988.0 3260.0
536101.0 1153936.0 3287.0
536507.0 1154147.0 3249.0
539409.0 1155750.0 3294.0
529647.0 1150795.0 3425.0
535883.0 1154064.0 3267.0
529603.0 1151037.0 3350.0
529969.0 1151270.0 3409.0
535790.0 1154280.0 3251.0
538481.0 1155793.0 3280.0
538863.0 1156012.0 3315.0
529791.0 1151443.0 3362.0
530587.0 1151883.0 3415.0
530502.0 1152178.0 3436.0
530287.0 1152308.0 3305.0
531386.0 1152945.0 3425.0
540363.0 1157810.0 3436.0
530703.0 1152786.0 3326.0
531096.0 1153039.0 3422.0
540224.0 1157976.0 3436.0
530855.0 1153109.0 3340.0
531991.0 1153713.0 3242.0
540241.0 1158191.0 3432.0
530500.0 1153113.0 3336.0
530878.0 1153296.0 3252.0
531074.0 1153654.0 3273.0
532663.0 1154607.0 3429.0
531009.0 1153859.0 3243.0
530678.0 1154336.0 3349.0
530481.0 1154521.0 3406.0
530093.0 1154550.0 3326.0
538569.0 1159065.0 3296.0
539744.0 1159790.0 3402.0
529660.0 1154917.0 3426.0
528242.0 1154518.0 3423.0
529382.0 1155021.0 3361.0
533193.0 1156993.0 3288.0
528979.0 1155110.0 3422.0
533009.0 1157199.0 3312.0
538728.0 1160334.0 3422.0
539606.0 1160739.0 3336.0
532657.0 1157308.0 3295.0
536114.0 1159213.0 3421.0
539699.0 1161067.0 3323.0
532332.0 1157463.0 3371.0
538890.0 1160912.0 3296.0
539299.0 1161146.0 3391.0
539734.0 1161308.0 3317.0
531962.0 1157482.0 3324.0
532366.0 1157671.0 3374.0
536135.0 1159614.0 3390.0
539026.0 1161132.0 3301.0
539394.0 1161373.0 3323.0
532352.0 1157832.0 3341.0
531511.0 1157660.0 3403.0
536172.0 1160075.0 3407.0
533006.0 1160171.0 3401.0
533818.0 1160582.0 3394.0
532770.0 1160348.0 3326.0
533890.0 1160990.0 3430.0
534714.0 1161335.0 3315.0
532571.0 1160639.0 3378.0
532965.0 1160815.0 3427.0
533760.0 1161254.0 3427.0
534173.0 1161454.0 3397.0
532352.0 1160772.0 3412.0
533544.0 1161402.0 3394.0
533926.0 1161604.0 3370.0
533571.0 1161660.0 3309.0
532367.0 1161344.0 3393.0
540448.0 1158243.0 3266.0
540229.0 1158331.0 3414.0
540205.0 1157761.0 3320.0
539711.0 1161264.0 3259.0
539750.0 1160765.0 3269.0
540007.0 1157604.0 3396.0
539513.0 1161371.0 3314.0
539619.0 1160841.0 3403.0
540046.0 1154544.0 3406.0
539449.0 1161139.0 3434.0
539840.0 1154727.0 3397.0
539227.0 1161333.0 3423.0
539502.0 1156054.0 3333.0
539529.0 1155570.0 3251.0
539621.0 1154531.0 3303.0
539351.0 1155937.0 3405.0
539397.0 1155384.0 3322.0
539209.0 1155427.0 3314.0
538912.0 1156760.0 3288.0
539049.0 1155684.0 3350.0
539026.0 1155149.0 3247.0
539166.0 1153653.0 3424.0
538593.0 1159065.0 3342.0
538833.0 1156134.0 3322.0
538536.0 1156386.0 3244.0
538613.0 1155794.0 3281.0
538871.0 1151764.0 3363.0
538155.0 1159350.0 3418.0
538343.0 1155630.0 3242.0
538652.0 1151890.0 3419.0
538020.0 1153394.0 3315.0
537626.0 1150350.0 3282.0
537198.0 1154350.0 3387.0
537462.0 1150325.0 3372.0
536902.0 1154359.0 3437.0
536930.0 1150447.0 3385.0
536464.0 1153926.0 3244.0
536709.0 1149700.0 3277.0
536268.0 1153952.0 3245.0
536032.0 1154028.0 3239.0
535640.0 1157322.0 3282.0
535839.0 1154105.0 3280.0
535648.0 1149517.0 3252.0
535212.0 1154077.0 3391.0
534403.0 1161225.0 3329.0
534776.0 1152785.0 3254.0
534911.0 1150461.0 3275.0
534109.0 1161663.0 3377.0
534138.0 1161132.0 3428.0
534659.0 1149824.0 3267.0
534657.0 1149315.0 3242.0
533878.0 1161430.0 3353.0
534460.0 1149797.0 3348.0
534457.0 1149237.0 3260.0
534271.0 1149303.0 3317.0
533513.0 1161234.0 3378.0
534113.0 1149429.0 3418.0
534118.0 1148893.0 3336.0
533383.0 1161209.0 3380.0
533956.0 1149521.0 3435.0
533965.0 1148935.0 3247.0
533114.0 1157105.0 3289.0
532925.0 1157137.0 3239.0
532448.0 1161323.0 3334.0
532490.0 1160717.0 3406.0
532188.0 1161546.0 3405.0
532244.0 1160445.0 3381.0
532057.0 1157545.0 3427.0
532544.0 1148293.0 3362.0
531884.0 1157446.0 3428.0
531429.0 1150348.0 3295.0
531096.0 1153158.0 3280.0
530659.0 1151624.0 3402.0
530718.0 1150480.0 3338.0
530377.0 1152541.0 3262.0
530398.0 1151964.0 3281.0
528432.0 1155004.0 3384.0
528463.0 1154464.0 3370.0
532275.0 1161388.0 3364.0
532251.0 1161092.0 3420.0
532528.0 1160998.0 3387.0
532527.0 1160440.0 3253.0
532092.0 1157497.0 3359.0
532384.0 1157395.0 3335.0
539392.0 1161274.0 3415.0
528898.0 1155041.0 3319.0
539430.0 1161095.0 3424.0
536098.0 1159208.0 3377.0
532801.0 1157241.0 3259.0
529081.0 1154973.0 3282.0
528695.0 1154726.0 3410.0
528702.0 1154602.0 3252.0
529697.0 1154629.0 3382.0
530167.0 1154688.0 3276.0
538712.0 1159449.0 3427.0
539629.0 1159855.0 3245.0
535749.0 1157380.0 3244.0
530499.0 1154290.0 3248.0
532567.0 1155182.0 3413.0
533263.0 1155062.0 3317.0
540165.0 1158470.0 3384.0
531236.0 1153240.0 3360.0
540395.0 1158421.0 3373.0
531958.0 1153607.0 3263.0
531171.0 1153128.0 3311.0
530295.0 1152283.0 3417.0
540422.0 1158132.0 3286.0
540074.0 1157868.0 3356.0
534314.0 1154637.0 3324.0
530194.0 1152186.0 3330.0
540443.0 1157979.0 3249.0
540095.0 1157703.0 3365.0
539299.0 1157261.0 3332.0
530427.0 1152166.0 3286.0
538088.0 1156314.0 3278.0
537657.0 1156068.0 3241.0
538092.0 1155765.0 3255.0
536064.0 1154331.0 3246.0
539394.0 1155959.0 3381.0
536143.0 1154156.0 3241.0
539467.0 1155794.0 3336.0
537149.0 1154393.0 3425.0
536286.0 1154018.0 3244.0
534728.0 1153050.0 3420.0
530319.0 1150441.0 3303.0
539478.0 1155586.0 3245.0
539051.0 1155335.0 3265.0
537359.0 1154358.0 3275.0
534775.0 1152864.0 3312.0
530425.0 1150389.0 3267.0
530057.0 1150080.0 3263.0
539267.0 1155174.0 3301.0
537259.0 1154041.0 3342.0
535606.0 1153085.0 3361.0
529918.0 1149743.0 3360.0
539374.0 1154974.0 3304.0
531816.0 1150623.0 3397.0
531469.0 1150378.0 3345.0
540055.0 1154979.0 3304.0
539271.0 1154511.0 3426.0
540031.0 1154626.0 3354.0
538065.0 1153531.0 3363.0
531566.0 1149871.0 3303.0
540315.0 1154498.0 3377.0
539945.0 1154303.0 3359.0
539140.0 1153939.0 3266.0
539080.0 1153710.0 3332.0
540650.0 1154393.0 3412.0
539437.0 1153773.0 3375.0
538893.0 1153173.0 3262.0
535385.0 1150236.0 3302.0
534546.0 1149781.0 3318.0
534152.0 1149521.0 3395.0
533737.0 1149295.0 3333.0
538733.0 1151818.0 3428.0
534643.0 1149635.0 3282.0
534266.0 1149384.0 3305.0
532671.0 1148431.0 3330.0
532278.0 1148256.0 3346.0
536632.0 1150427.0 3425.0
535775.0 1149963.0 3279.0
534182.0 1149079.0 3285.0
537375.0 1150560.0 3431.0
536952.0 1150359.0 3368.0
536561.0 1149550.0 3332.0
537592.0 1149882.0 3286.0
536776.0 1149393.0 3320.0
528157.0 1154912.0 3164.0
529583.0 1151234.0 3167.0
529960.0 1152748.0 3134.0
530492.0 1149947.0 3230.0
530278.0 1152669.0 3150.0
530427.0 1152949.0 3174.0
530803.0 1153302.0 3226.0
531962.0 1148869.0 3072.0
532088.0 1153846.0 3118.0
532453.0 1154569.0 3175.0
532167.0 1160372.0 3099.0
532481.0 1160143.0 3071.0
532302.0 1161644.0 3133.0
533073.0 1157063.0 3180.0
533559.0 1154980.0 3233.0
533396.0 1156706.0 3211.0
534925.0 1154746.0 3135.0
535815.0 1149847.0 3178.0
535401.0 1154403.0 3176.0
536033.0 1149710.0 3170.0
538206.0 1156126.0 3163.0
538507.0 1155279.0 3088.0
538344.0 1159386.0 3164.0
538514.0 1160078.0 3135.0
538656.0 1160624.0 3141.0
539978.0 1160541.0 3066.0
531073.0 1150589.0 3231.0
531465.0 1150800.0 3049.0
537532.0 1154384.0 3171.0
529431.0 1151150.0 3138.0
536847.0 1155083.0 3054.0
539347.0 1156483.0 3086.0
531714.0 1152689.0 3173.0
530325.0 1152522.0 3165.0
530081.0 1152614.0 3156.0
530461.0 1152819.0 3100.0
531686.0 1153698.0 3153.0
532051.0 1153859.0 3107.0
533153.0 1154531.0 3169.0
534700.0 1155349.0 3235.0
536663.0 1156305.0 3061.0
531515.0 1153794.0 3093.0
533555.0 1154941.0 3180.0
529003.0 1153036.0 3145.0
538356.0 1158720.0 3192.0
533418.0 1156512.0 3084.0
533248.0 1156749.0 3159.0
538266.0 1159380.0 3049.0
538549.0 1159874.0 3170.0
539798.0 1160502.0 3180.0
527750.0 1154544.0 3205.0
538541.0 1160372.0 3051.0
538576.0 1160605.0 3069.0
527549.0 1155088.0 3063.0
534006.0 1159502.0 3078.0
533616.0 1159637.0 3095.0
534760.0 1160615.0 3136.0
532206.0 1160334.0 3115.0
532133.0 1161403.0 3195.0
532499.0 1161556.0 3135.0
532093.0 1161593.0 3170.0
540688.0 1154361.0 3123.0
539552.0 1160247.0 3070.0
539621.0 1159707.0 3221.0
539399.0 1157099.0 3158.0
539578.0 1154004.0 3088.0
538925.0 1161052.0 3078.0
539441.0 1154185.0 3221.0
539033.0 1156583.0 3062.0
538516.0 1159548.0 3064.0
539027.0 1151648.0 3094.0
538324.0 1158735.0 3161.0
538624.0 1155223.0 3142.0
538228.0 1156153.0 3125.0
538533.0 1151398.0 3049.0
537714.0 1161105.0 3148.0
538018.0 1155914.0 3177.0
538270.0 1151347.0 3065.0
537588.0 1153560.0 3087.0
537807.0 1150942.0 3173.0
537840.0 1150452.0 3221.0
537423.0 1153754.0 3226.0
537542.0 1150905.0 3090.0
537661.0 1149798.0 3216.0
537191.0 1153784.0 3226.0
537332.0 1150884.0 3124.0
536839.0 1153789.0 3203.0
536476.0 1156312.0 3077.0
536645.0 1153973.0 3232.0
536950.0 1149347.0 3230.0
536309.0 1149388.0 3127.0
535726.0 1154655.0 3072.0
536064.0 1149393.0 3120.0
535542.0 1154037.0 3117.0
535826.0 1149478.0 3109.0
535405.0 1149356.0 3054.0
534586.0 1160818.0 3190.0
535045.0 1150845.0 3040.0
535155.0 1150297.0 3153.0
534680.0 1154630.0 3207.0
534902.0 1149909.0 3177.0
534948.0 1149329.0 3160.0
534079.0 1159475.0 3052.0
534129.0 1158952.0 3074.0
533496.0 1156492.0 3085.0
532648.0 1161287.0 3065.0
531909.0 1153813.0 3094.0
531520.0 1150737.0 3083.0
531468.0 1148642.0 3184.0
531108.0 1153719.0 3228.0
531374.0 1148506.0 3158.0
530952.0 1153346.0 3214.0
531177.0 1148619.0 3228.0
530724.0 1152915.0 3189.0
530528.0 1152825.0 3177.0
529897.0 1152660.0 3047.0
534064.0 1159401.0 3116.0
537775.0 1161008.0 3054.0
527912.0 1155020.0 3160.0
527862.0 1154747.0 3067.0
528448.0 1154806.0 3204.0
527988.0 1154630.0 3071.0
539741.0 1161319.0 3211.0
528201.0 1154547.0 3047.0
528266.0 1154429.0 3047.0
538538.0 1159989.0 3144.0
539733.0 1160418.0 3084.0
538515.0 1159725.0 3119.0
538192.0 1159463.0 3234.0
530770.0 1154217.0 3225.0
531217.0 1153885.0 3214.0
533607.0 1155000.0 3119.0
531446.0 1153764.0 3158.0
531015.0 1153505.0 3214.0
531984.0 1153872.0 3047.0
530713.0 1153153.0 3062.0
530405.0 1152774.0 3236.0
529960.0 1152612.0 3151.0
530389.0 1152653.0 3220.0
534859.0 1154746.0 3158.0
530029.0 1151916.0 3237.0
539364.0 1157110.0 3196.0
538962.0 1156840.0 3229.0
540112.0 1157263.0 3059.0
538939.0 1156593.0 3144.0
538534.0 1156354.0 3145.0
538094.0 1156126.0 3121.0
535281.0 1154475.0 3048.0
529621.0 1151119.0 3199.0
539407.0 1156276.0 3182.0
538568.0 1155831.0 3204.0
539702.0 1156233.0 3060.0
538512.0 1155580.0 3106.0
537594.0 1154334.0 3055.0
536815.0 1153845.0 3209.0
534790.0 1152683.0 3188.0
537389.0 1153861.0 3235.0
530166.0 1149727.0 3074.0
537506.0 1153651.0 3122.0
539547.0 1154477.0 3160.0
539533.0 1154126.0 3219.0
539926.0 1154202.0 3180.0
539506.0 1153941.0 3230.0
538585.0 1153223.0 3142.0
535046.0 1150753.0 3065.0
535012.0 1150406.0 3168.0
534957.0 1150075.0 3111.0
535035.0 1149901.0 3143.0
533851.0 1149160.0 3214.0
538107.0 1151364.0 3158.0
537313.0 1150941.0 3065.0
536174.0 1150254.0 3229.0
534571.0 1149325.0 3225.0
532996.0 1148424.0 3167.0
532583.0 1148237.0 3176.0
539032.0 1151655.0 3120.0
538622.0 1151424.0 3046.0
538196.0 1151195.0 3046.0
537775.0 1150926.0 3093.0
535683.0 1149689.0 3217.0
534401.0 1148974.0 3182.0
540058.0 1151908.0 3154.0
537645.0 1150528.0 3224.0
536005.0 1149659.0 3078.0
537720.0 1150282.0 3185.0
536845.0 1149301.0 3167.0
527608.0 1155214.0 2861.0
528010.0 1154629.0 2931.0
528846.0 1152948.0 2949.0
529323.0 1151189.0 2985.0
529116.0 1153373.0 2953.0
529498.0 1152798.0 3000.0
530924.0 1148567.0 2856.0
530807.0 1149719.0 2907.0
531102.0 1148750.0 2892.0
531468.0 1151126.0 2876.0
531814.0 1151472.0 2855.0
532366.0 1154215.0 2993.0
532608.0 1154036.0 2894.0
531936.0 1160404.0 3015.0
532855.0 1154376.0 2896.0
532296.0 1159840.0 2863.0
533103.0 1154602.0 2984.0
532606.0 1159711.0 2891.0
533413.0 1160127.0 2868.0
534082.0 1156175.0 2998.0
533957.0 1159919.0 2850.0
534108.0 1159812.0 2900.0
534021.0 1160365.0 3037.0
535264.0 1149478.0 2845.0
534274.0 1160231.0 2854.0
535462.0 1149106.0 2956.0
535477.0 1149590.0 2940.0
535246.0 1154414.0 2992.0
535938.0 1149258.0 2910.0
536157.0 1149172.0 2841.0
535770.0 1156693.0 2847.0
536613.0 1148919.0 2969.0
538063.0 1150047.0 3001.0
538417.0 1150357.0 2855.0
537827.0 1160747.0 3016.0
538198.0 1159729.0 2896.0
538103.0 1160838.0 2856.0
538335.0 1160549.0 2915.0
538489.0 1160588.0 3028.0
538904.0 1161294.0 2852.0
539909.0 1160354.0 3033.0
536129.0 1149197.0 2948.0
535974.0 1149681.0 2987.0
535538.0 1149586.0 2851.0
535924.0 1149856.0 3001.0
538331.0 1151141.0 2865.0
535370.0 1149706.0 2962.0
531596.0 1148540.0 2996.0
530878.0 1148437.0 2849.0
534566.0 1150431.0 2924.0
541088.0 1154382.0 2878.0
539797.0 1154006.0 2990.0
537618.0 1153255.0 2875.0
534895.0 1152069.0 3013.0
531708.0 1151181.0 2952.0
533353.0 1152036.0 2890.0
538658.0 1155233.0 2997.0
532369.0 1152124.0 3012.0
536626.0 1154640.0 2997.0
536455.0 1154835.0 2946.0
537290.0 1155286.0 2915.0
537732.0 1155504.0 2890.0
529414.0 1151375.0 2846.0
536521.0 1155173.0 2882.0
536902.0 1155383.0 2860.0
540477.0 1157373.0 2922.0
532426.0 1154027.0 2963.0
532824.0 1154193.0 2858.0
529533.0 1152759.0 3013.0
531938.0 1153970.0 3007.0
532379.0 1154192.0 3021.0
533183.0 1154651.0 2972.0
536486.0 1156413.0 3011.0
529456.0 1152879.0 2904.0
536514.0 1156653.0 2894.0
529372.0 1153155.0 2922.0
535674.0 1156812.0 2907.0
533637.0 1156251.0 2905.0
539936.0 1160193.0 2925.0
538244.0 1159585.0 2978.0
540003.0 1160847.0 2981.0
538207.0 1160346.0 2916.0
538231.0 1160588.0 2924.0
538618.0 1160832.0 2959.0
534447.0 1158795.0 2935.0
537980.0 1160667.0 2914.0
534286.0 1158971.0 2990.0
537750.0 1160769.0 2858.0
534001.0 1159754.0 2898.0
534347.0 1159930.0 2874.0
533581.0 1159919.0 2914.0
534366.0 1160342.0 2982.0
532364.0 1159659.0 2838.0
532071.0 1159898.0 2958.0
532427.0 1160032.0 3013.0
531836.0 1159988.0 2895.0
540861.0 1154486.0 2870.0
540759.0 1152136.0 2892.0
539925.0 1160608.0 2907.0
540118.0 1157178.0 2970.0
540281.0 1154887.0 2861.0
539720.0 1160198.0 2945.0
539914.0 1157059.0 3018.0
539537.0 1156434.0 2902.0
539347.0 1156574.0 2856.0
539191.0 1156495.0 3033.0
538517.0 1160970.0 2853.0
538183.0 1161104.0 3007.0
538184.0 1160487.0 2942.0
538234.0 1159284.0 2905.0
537928.0 1160993.0 3037.0
537955.0 1160466.0 2986.0
537687.0 1160568.0 2930.0
538241.0 1150835.0 2906.0
537945.0 1151570.0 2854.0
538038.0 1149883.0 2851.0
537373.0 1156745.0 3015.0
537400.0 1155683.0 2894.0
537427.0 1155139.0 2870.0
537484.0 1154631.0 2909.0
537816.0 1149910.0 2908.0
537180.0 1156567.0 2936.0
537175.0 1155403.0 2857.0
536923.0 1155504.0 2846.0
536996.0 1154932.0 2925.0
536776.0 1155200.0 2870.0
536796.0 1154702.0 2885.0
536605.0 1155467.0 2850.0
536462.0 1155119.0 2891.0
536523.0 1154547.0 3002.0
536447.0 1152321.0 2959.0
536534.0 1150228.0 2864.0
536612.0 1149175.0 2914.0
535807.0 1160342.0 2975.0
536180.0 1152787.0 2859.0
535739.0 1156943.0 2863.0
535975.0 1152843.0 2873.0
536173.0 1149955.0 2929.0
535535.0 1156776.0 2893.0
535700.0 1153571.0 2900.0
535927.0 1149932.0 2892.0
535511.0 1153452.0 2907.0
535209.0 1154209.0 2849.0
535026.0 1154647.0 2943.0
535252.0 1150360.0 2880.0
534965.0 1151413.0 2882.0
535083.0 1149718.0 2897.0
534312.0 1160618.0 3013.0
534331.0 1158800.0 2887.0
534775.0 1152249.0 2989.0
534091.0 1158423.0 2890.0
533961.0 1156140.0 2935.0
533709.0 1156296.0 2962.0
533637.0 1156325.0 2991.0
532098.0 1154033.0 3015.0
531741.0 1151292.0 2862.0
531628.0 1151465.0 2886.0
531589.0 1150966.0 2935.0
530861.0 1148635.0 2915.0
534259.0 1160400.0 2847.0
538746.0 1161385.0 2856.0
537982.0 1160873.0 2970.0
537604.0 1160703.0 2931.0
538419.0 1160930.0 2884.0
537968.0 1160689.0 2870.0
538508.0 1160658.0 3033.0
538068.0 1160509.0 2939.0
538307.0 1160443.0 2940.0
540077.0 1160730.0 2853.0
539875.0 1160349.0 2843.0
538205.0 1159340.0 2875.0
538334.0 1159303.0 2886.0
537971.0 1159003.0 2843.0
529170.0 1153595.0 3031.0
529048.0 1153266.0 2968.0
535880.0 1157118.0 2842.0
529581.0 1152944.0 3036.0
529140.0 1152791.0 2890.0
532374.0 1154141.0 2946.0
528312.0 1151659.0 2999.0
532330.0 1153921.0 2908.0
536332.0 1155488.0 2848.0
539326.0 1156855.0 2974.0
537664.0 1155921.0 3030.0
537244.0 1155719.0 2905.0
536437.0 1155293.0 2851.0
539214.0 1156545.0 3007.0
536806.0 1155190.0 2871.0
535249.0 1154321.0 2908.0
536417.0 1154685.0 2955.0
539780.0 1156157.0 2839.0
537452.0 1154805.0 2889.0
538581.0 1155196.0 2966.0
539614.0 1155526.0 2942.0
538793.0 1155084.0 2945.0
531496.0 1150824.0 2984.0
531032.0 1150697.0 2838.0
537765.0 1154181.0 3020.0
535803.0 1152774.0 2879.0
534955.0 1152257.0 2957.0
530251.0 1149488.0 2995.0
536731.0 1153007.0 2863.0
535158.0 1152072.0 2879.0
540605.0 1154829.0 2941.0
531088.0 1149408.0 2936.0
540698.0 1154693.0 2970.0
540948.0 1154689.0 2972.0
539773.0 1154122.0 2871.0
530851.0 1148990.0 2873.0
539698.0 1153915.0 2939.0
534948.0 1151179.0 3014.0
530929.0 1148887.0 2848.0
534578.0 1150854.0 2876.0
531090.0 1148824.0 2888.0
534652.0 1150581.0 2994.0
531342.0 1148671.0 2928.0
534922.0 1149706.0 2841.0
536485.0 1150218.0 3037.0
535208.0 1149566.0 2931.0
538806.0 1151297.0 2887.0
538390.0 1151069.0 2881.0
537989.0 1150815.0 2978.0
536378.0 1149954.0 2889.0
535577.0 1149423.0 3033.0
535156.0 1149246.0 2972.0
536278.0 1149261.0 3025.0
536393.0 1149162.0 2848.0
536695.0 1149094.0 2882.0
528420.0 1151313.0 2703.0
528795.0 1151012.0 2652.0
528725.0 1151491.0 2689.0
529084.0 1151429.0 2663.0
528964.0 1152479.0 2701.0
528721.0 1154554.0 2758.0
529192.0 1152836.0 2791.0
530662.0 1149034.0 2648.0
530620.0 1149531.0 2673.0
530762.0 1148892.0 2758.0
530745.0 1149424.0 2643.0
530835.0 1150782.0 2658.0
531009.0 1150748.0 2680.0
531827.0 1151959.0 2767.0
532105.0 1152064.0 2738.0
532580.0 1152711.0 2642.0
533093.0 1152720.0 2667.0
533405.0 1152101.0 2801.0
533735.0 1152167.0 2650.0
533680.0 1152687.0 2641.0
534067.0 1155890.0 2769.0
533791.0 1158637.0 2780.0
534254.0 1155661.0 2726.0
533826.0 1160113.0 2689.0
534743.0 1151849.0 2818.0
534947.0 1151600.0 2746.0
535213.0 1151264.0 2661.0
534771.0 1155799.0 2677.0
535097.0 1154310.0 2780.0
535038.0 1155814.0 2652.0
534635.0 1158876.0 2786.0
535690.0 1149903.0 2774.0
535159.0 1156109.0 2748.0
535402.0 1156176.0 2764.0
535905.0 1152874.0 2797.0
535864.0 1153384.0 2812.0
535613.0 1156496.0 2780.0
536357.0 1152952.0 2818.0
536709.0 1152580.0 2730.0
536315.0 1157219.0 2661.0
537417.0 1151334.0 2672.0
538056.0 1159236.0 2654.0
538558.0 1161147.0 2704.0
538730.0 1161225.0 2753.0
540117.0 1152064.0 2652.0
539966.0 1159843.0 2817.0
535223.0 1149291.0 2659.0
535721.0 1149890.0 2808.0
535857.0 1150136.0 2653.0
537941.0 1151311.0 2708.0
541274.0 1154106.0 2759.0
530558.0 1148842.0 2669.0
535122.0 1151310.0 2663.0
530651.0 1149186.0 2729.0
531013.0 1149407.0 2793.0
530555.0 1149342.0 2655.0
530894.0 1149549.0 2759.0
530322.0 1149505.0 2674.0
530663.0 1149717.0 2828.0
530996.0 1150705.0 2720.0
531365.0 1150930.0 2783.0
533757.0 1152149.0 2656.0
531654.0 1151344.0 2808.0
533714.0 1152386.0 2670.0
539917.0 1155821.0 2747.0
531739.0 1151547.0 2712.0
533666.0 1152593.0 2646.0
531685.0 1151792.0 2736.0
532020.0 1152033.0 2733.0
532381.0 1152259.0 2705.0
537821.0 1155177.0 2735.0
531596.0 1152116.0 2816.0
528434.0 1151075.0 2672.0
528822.0 1151289.0 2696.0
529199.0 1151493.0 2672.0
536228.0 1155271.0 2789.0
536613.0 1155483.0 2807.0
528336.0 1151310.0 2783.0
528757.0 1151508.0 2688.0
535786.0 1155224.0 2657.0
528216.0 1151484.0 2726.0
528618.0 1151653.0 2648.0
529142.0 1152444.0 2782.0
528772.0 1152435.0 2641.0
529124.0 1152725.0 2831.0
535006.0 1155733.0 2640.0
528318.0 1152544.0 2653.0
535209.0 1156188.0 2775.0
535582.0 1156442.0 2812.0
536383.0 1156854.0 2804.0
529082.0 1153257.0 2821.0
534062.0 1155939.0 2830.0
536132.0 1156975.0 2735.0
533744.0 1156019.0 2767.0
537275.0 1157913.0 2660.0
531315.0 1155000.0 2765.0
531080.0 1155057.0 2741.0
537665.0 1158518.0 2658.0
537983.0 1158848.0 2713.0
540026.0 1159958.0 2738.0
537984.0 1159049.0 2826.0
528740.0 1154468.0 2645.0
540161.0 1160573.0 2760.0
528025.0 1154688.0 2823.0
534796.0 1158450.0 2696.0
534582.0 1158552.0 2689.0
537839.0 1160299.0 2746.0
534859.0 1158901.0 2692.0
537616.0 1160382.0 2707.0
538377.0 1160851.0 2829.0
538732.0 1161077.0 2813.0
534733.0 1159050.0 2654.0
537423.0 1160570.0 2772.0
538149.0 1160949.0 2751.0
538551.0 1161130.0 2718.0
537631.0 1160958.0 2789.0
533962.0 1160070.0 2782.0
533529.0 1160153.0 2647.0
540970.0 1151911.0 2758.0
540072.0 1160550.0 2738.0
540501.0 1154878.0 2799.0
539886.0 1160039.0 2738.0
539844.0 1155970.0 2706.0
539943.0 1154960.0 2708.0
540020.0 1153937.0 2712.0
539854.0 1153994.0 2830.0
539692.0 1154172.0 2828.0
539564.0 1152435.0 2797.0
539330.0 1153081.0 2748.0
539451.0 1152501.0 2836.0
538632.0 1161201.0 2809.0
539058.0 1152009.0 2672.0
538311.0 1160728.0 2704.0
538933.0 1151070.0 2694.0
538729.0 1151133.0 2818.0
537935.0 1158802.0 2728.0
538468.0 1150826.0 2772.0
538499.0 1150317.0 2737.0
537920.0 1155358.0 2813.0
538245.0 1150260.0 2773.0
537724.0 1154499.0 2804.0
537972.0 1151014.0 2820.0
538015.0 1150429.0 2795.0
537559.0 1153084.0 2812.0
537329.0 1151465.0 2664.0
537175.0 1151415.0 2697.0
536593.0 1156826.0 2655.0
537036.0 1151497.0 2778.0
536981.0 1151010.0 2750.0
536478.0 1156641.0 2737.0
536702.0 1152621.0 2654.0
536276.0 1156914.0 2669.0
536533.0 1152794.0 2709.0
536089.0 1157112.0 2707.0
536348.0 1152844.0 2763.0
535927.0 1156835.0 2803.0
535772.0 1155168.0 2688.0
535505.0 1156251.0 2739.0
535715.0 1152518.0 2728.0
535307.0 1156366.0 2766.0
535073.0 1155942.0 2679.0
535361.0 1150639.0 2647.0
534866.0 1155725.0 2653.0
535128.0 1151445.0 2650.0
534382.0 1160196.0 2638.0
534511.0 1159048.0 2718.0
534921.0 1151984.0 2827.0
535180.0 1149142.0 2779.0
534232.0 1160026.0 2754.0
533960.0 1160022.0 2726.0
534112.0 1155662.0 2644.0
533712.0 1160269.0 2691.0
533599.0 1154744.0 2779.0
533280.0 1154643.0 2819.0
532826.0 1154148.0 2778.0
532555.0 1153999.0 2826.0
532574.0 1152204.0 2652.0
532294.0 1152276.0 2692.0
532120.0 1152268.0 2797.0
531901.0 1152018.0 2752.0
531821.0 1151488.0 2682.0
531720.0 1151785.0 2752.0
531206.0 1150891.0 2779.0
531028.0 1150793.0 2739.0
531085.0 1149002.0 2721.0
530867.0 1150975.0 2763.0
530929.0 1149134.0 2817.0
530391.0 1148934.0 2660.0
529005.0 1153026.0 2798.0
528187.0 1151245.0 2800.0
528647.0 1154520.0 2737.0
539977.0 1160258.0 2694.0
540043.0 1160162.0 2646.0
539724.0 1159896.0 2765.0
538076.0 1158962.0 2738.0
531599.0 1154874.0 2815.0
537841.0 1158357.0 2638.0
531736.0 1154758.0 2660.0
535965.0 1156885.0 2749.0
535562.0 1156629.0 2800.0
532316.0 1154774.0 2642.0
535662.0 1156448.0 2740.0
529235.0 1152617.0 2793.0
532799.0 1154394.0 2833.0
533529.0 1154707.0 2707.0
533115.0 1154473.0 2726.0
532705.0 1154197.0 2804.0
528323.0 1151549.0 2817.0
532775.0 1154110.0 2662.0
528455.0 1151482.0 2737.0
528404.0 1151334.0 2697.0
535864.0 1155313.0 2669.0
529416.0 1151470.0 2771.0
536832.0 1155529.0 2816.0
532441.0 1152704.0 2721.0
537626.0 1155463.0 2687.0
532134.0 1152258.0 2686.0
537649.0 1155222.0 2768.0
532348.0 1152235.0 2673.0
531961.0 1151971.0 2655.0
537823.0 1155129.0 2672.0
531803.0 1151623.0 2696.0
530605.0 1150867.0 2722.0
539854.0 1156020.0 2706.0
537704.0 1154784.0 2776.0
531658.0 1151244.0 2827.0
531246.0 1150968.0 2764.0
533496.0 1152111.0 2824.0
539974.0 1155207.0 2705.0
536207.0 1153040.0 2800.0
540304.0 1155049.0 2681.0
537534.0 1153441.0 2829.0
536320.0 1152807.0 2739.0
534759.0 1151892.0 2725.0
530242.0 1149270.0 2723.0
537096.0 1152863.0 2714.0
536649.0 1152743.0 2679.0
535096.0 1151822.0 2786.0
537709.0 1153089.0 2812.0
535150.0 1151670.0 2710.0
540868.0 1154587.0 2812.0
536861.0 1152418.0 2660.0
540915.0 1154450.0 2813.0
540482.0 1154259.0 2665.0
540079.0 1154001.0 2738.0
530677.0 1148633.0 2730.0
540982.0 1154348.0 2675.0
530918.0 1148533.0 2705.0
536958.0 1151653.0 2642.0
531315.0 1148487.0 2657.0
539496.0 1152833.0 2670.0
531862.0 1148461.0 2743.0
537361.0 1151403.0 2692.0
535357.0 1150244.0 2755.0
537631.0 1151293.0 2777.0
536010.0 1150071.0 2801.0
534777.0 1149342.0 2732.0
539185.0 1151318.0 2665.0
538813.0 1151067.0 2779.0
538439.0 1150843.0 2806.0
536799.0 1149944.0 2837.0
535235.0 1149091.0 2656.0
538338.0 1150520.0 2765.0
537939.0 1150275.0 2797.0
538427.0 1150324.0 2744.0
538066.0 1150091.0 2814.0
538273.0 1149993.0 2770.0
528413.0 1151859.0 2601.0
528721.0 1151988.0 2595.0
528660.0 1152475.0 2601.0
530296.0 1149313.0 2519.0
530536.0 1148883.0 2635.0
530482.0 1149437.0 2533.0
531911.0 1154772.0 2608.0
532477.0 1152655.0 2556.0
531972.0 1157117.0 2565.0
532441.0 1154754.0 2558.0
532932.0 1152394.0 2458.0
532834.0 1152936.0 2582.0
532508.0 1156728.0 2457.0
533073.0 1153278.0 2553.0
533062.0 1153836.0 2524.0
532881.0 1155474.0 2490.0
532766.0 1156557.0 2474.0
533405.0 1152581.0 2625.0
533121.0 1156151.0 2454.0
533617.0 1153774.0 2507.0
533480.0 1155447.0 2482.0
533763.0 1155587.0 2500.0
534124.0 1154029.0 2542.0
533976.0 1155563.0 2525.0
534296.0 1154278.0 2586.0
534285.0 1154828.0 2446.0
533800.0 1159182.0 2597.0
533713.0 1160249.0 2532.0
535005.0 1149801.0 2630.0
535183.0 1149408.0 2526.0
535208.0 1149971.0 2444.0
535381.0 1148960.0 2614.0
535298.0 1150680.0 2636.0
535537.0 1150630.0 2508.0
535422.0 1151110.0 2521.0
535649.0 1150458.0 2636.0
536884.0 1151033.0 2578.0
536885.0 1151553.0 2475.0
537125.0 1151628.0 2538.0
537449.0 1151952.0 2495.0
536940.0 1157702.0 2560.0
537792.0 1151368.0 2596.0
540230.0 1151448.0 2532.0
540387.0 1151414.0 2614.0
540569.0 1154063.0 2503.0
535648.0 1149296.0 2512.0
539109.0 1152168.0 2509.0
535609.0 1150522.0 2498.0
535483.0 1150738.0 2477.0
535291.0 1151026.0 2571.0
537208.0 1152085.0 2526.0
540377.0 1153893.0 2502.0
540762.0 1154112.0 2632.0
530247.0 1148913.0 2578.0
540600.0 1154584.0 2578.0
530581.0 1149826.0 2594.0
539104.0 1154719.0 2557.0
534129.0 1152244.0 2577.0
539609.0 1155301.0 2593.0
539539.0 1155538.0 2571.0
529756.0 1150402.0 2450.0
533211.0 1152609.0 2605.0
539814.0 1156206.0 2567.0
532431.0 1152482.0 2594.0
532802.0 1152720.0 2582.0
533200.0 1152951.0 2609.0
528710.0 1150911.0 2622.0
532645.0 1152935.0 2566.0
533020.0 1153152.0 2570.0
533417.0 1153346.0 2538.0
533159.0 1153495.0 2516.0
533535.0 1153702.0 2506.0
534274.0 1154126.0 2587.0
532929.0 1153623.0 2546.0
533760.0 1154029.0 2447.0
534151.0 1154334.0 2560.0
535364.0 1154982.0 2623.0
532952.0 1153836.0 2518.0
534138.0 1154471.0 2445.0
535283.0 1155132.0 2560.0
535656.0 1155355.0 2617.0
528360.0 1151670.0 2539.0
528713.0 1151881.0 2605.0
534858.0 1155108.0 2545.0
535246.0 1155298.0 2512.0
528754.0 1152157.0 2613.0
534867.0 1155368.0 2569.0
534639.0 1155498.0 2598.0
528672.0 1152684.0 2619.0
532540.0 1154711.0 2557.0
532960.0 1154882.0 2438.0
528332.0 1152784.0 2559.0
531608.0 1154519.0 2602.0
532011.0 1154730.0 2605.0
533709.0 1155608.0 2521.0
536608.0 1157141.0 2515.0
531758.0 1154836.0 2575.0
533002.0 1155473.0 2459.0
533393.0 1155686.0 2467.0
536178.0 1157198.0 2615.0
536545.0 1157418.0 2556.0
536913.0 1157662.0 2581.0
532939.0 1155733.0 2488.0
536855.0 1157743.0 2451.0
537232.0 1157954.0 2479.0
537550.0 1158236.0 2567.0
537927.0 1158453.0 2550.0
533097.0 1156058.0 2439.0
532391.0 1156837.0 2510.0
533594.0 1158492.0 2592.0
538527.0 1161330.0 2631.0
541282.0 1154209.0 2544.0
541061.0 1154165.0 2592.0
540072.0 1159972.0 2631.0
540688.0 1151526.0 2481.0
540086.0 1155377.0 2628.0
540076.0 1152327.0 2511.0
540179.0 1151318.0 2552.0
539983.0 1151209.0 2561.0
539461.0 1154744.0 2525.0
539535.0 1151371.0 2442.0
538743.0 1157689.0 2463.0
538128.0 1155094.0 2582.0
537685.0 1158231.0 2635.0
537409.0 1158041.0 2581.0
537132.0 1157788.0 2547.0
537531.0 1151522.0 2590.0
537251.0 1152613.0 2579.0
537254.0 1152028.0 2508.0
537022.0 1152576.0 2582.0
537064.0 1152006.0 2581.0
536530.0 1157336.0 2524.0
536852.0 1152575.0 2615.0
536398.0 1157213.0 2564.0
536234.0 1157509.0 2601.0
536640.0 1150967.0 2543.0
535520.0 1155197.0 2636.0
535745.0 1150410.0 2451.0
535298.0 1155200.0 2614.0
535284.0 1151214.0 2533.0
535284.0 1150106.0 2446.0
535418.0 1148944.0 2479.0
534610.0 1160062.0 2619.0
535133.0 1149836.0 2585.0
535195.0 1148809.0 2454.0
534208.0 1152431.0 2486.0
533680.0 1153959.0 2457.0
533832.0 1152221.0 2540.0
533419.0 1155756.0 2454.0
533534.0 1153636.0 2452.0
533493.0 1152362.0 2614.0
533233.0 1153406.0 2500.0
533321.0 1152800.0 2622.0
533016.0 1153839.0 2493.0
533141.0 1152763.0 2627.0
532540.0 1152787.0 2602.0
529018.0 1153207.0 2506.0
528477.0 1151306.0 2558.0
540122.0 1159971.0 2605.0
538024.0 1158725.0 2610.0
538247.0 1158643.0 2457.0
537455.0 1158089.0 2610.0
537050.0 1157860.0 2516.0
536250.0 1157425.0 2603.0
537069.0 1157667.0 2519.0
536704.0 1157420.0 2523.0
536327.0 1157157.0 2604.0
531905.0 1154630.0 2452.0
528666.0 1152665.0 2479.0
536477.0 1157026.0 2551.0
528778.0 1152406.0 2568.0
535145.0 1155923.0 2621.0
534739.0 1155677.0 2608.0
533526.0 1154965.0 2603.0
533157.0 1154704.0 2604.0
528628.0 1152059.0 2570.0
538649.0 1157767.0 2491.0
535071.0 1155678.0 2590.0
528643.0 1151849.0 2600.0
538761.0 1157666.0 2470.0
532961.0 1154130.0 2478.0
528809.0 1151623.0 2582.0
532758.0 1153790.0 2595.0
528711.0 1151419.0 2532.0
528316.0 1151148.0 2581.0
532845.0 1153620.0 2489.0
528947.0 1151282.0 2510.0
528517.0 1151006.0 2565.0
533533.0 1153753.0 2463.0
533141.0 1153493.0 2500.0
532753.0 1153274.0 2544.0
533556.0 1153509.0 2465.0
533179.0 1153249.0 2523.0
532808.0 1152994.0 2574.0
533331.0 1153090.0 2546.0
532936.0 1152816.0 2588.0
532505.0 1152597.0 2555.0
533186.0 1152684.0 2626.0
532754.0 1152514.0 2515.0
533387.0 1152572.0 2632.0
529790.0 1150453.0 2603.0
538070.0 1155101.0 2493.0
539934.0 1155900.0 2513.0
