578002.0 1072185.0 10295.0
582464.0 1073098.0 10391.0
582510.0 1072920.0 10281.0
578706.0 1071777.0 10284.0
582643.0 1072680.0 10317.0
582275.0 1072640.0 10255.0
578721.0 1071566.0 10435.0
582726.0 1072425.0 10434.0
582910.0 1072221.0 10395.0
582526.0 1071492.0 10348.0
581459.0 1071237.0 10243.0
582462.0 1071174.0 10333.0
582140.0 1071090.0 10267.0
579411.0 1070225.0 10412.0
582045.0 1070725.0 10369.0
579164.0 1069920.0 10279.0
579888.0 1072356.0 10060.0
580722.0 1074473.0 10057.0
579998.0 1072772.0 10133.0
580442.0 1073811.0 10172.0
579273.0 1072159.0 10113.0
580610.0 1074662.0 10212.0
579874.0 1073129.0 10114.0
580520.0 1073988.0 10191.0
578174.0 1070388.0 10051.0
578136.0 1070360.0 10039.0
579055.0 1072030.0 10221.0
578184.0 1070345.0 10084.0
579223.0 1072093.0 10095.0
579104.0 1072125.0 10167.0
579209.0 1072633.0 10152.0
580083.0 1075034.0 10168.0
580121.0 1075206.0 10231.0
578123.0 1071909.0 10120.0
579823.0 1074965.0 10217.0
583131.0 1072220.0 10147.0
582292.0 1072963.0 10132.0
582021.0 1072875.0 10095.0
582615.0 1071042.0 10145.0
581872.0 1072529.0 10102.0
582368.0 1070974.0 10182.0
582467.0 1070655.0 10190.0
582131.0 1070860.0 10220.0
580112.0 1075155.0 10188.0
579792.0 1075092.0 10199.0
580892.0 1071580.0 10199.0
579561.0 1074733.0 10178.0
579430.0 1074315.0 10112.0
580354.0 1071235.0 10054.0
580722.0 1070122.0 10152.0
580096.0 1071310.0 10102.0
579634.0 1071250.0 10147.0
578850.0 1071847.0 10236.0
579446.0 1070001.0 10136.0
579610.0 1069239.0 10136.0
578178.0 1070743.0 10188.0
580004.0 1075223.0 10219.0
580064.0 1075016.0 10097.0
580097.0 1074278.0 10125.0
582770.0 1074067.0 10058.0
580772.0 1073445.0 10119.0
579222.0 1072330.0 10076.0
582119.0 1072936.0 10062.0
581834.0 1072738.0 10166.0
579021.0 1071987.0 10127.0
581917.0 1072573.0 10126.0
581220.0 1071841.0 10136.0
579525.0 1071328.0 10182.0
582846.0 1072015.0 10051.0
581015.0 1071566.0 10076.0
583465.0 1071915.0 10043.0
582797.0 1071314.0 10226.0
581766.0 1071005.0 10133.0
581407.0 1070969.0 10062.0
579690.0 1070449.0 10103.0
582398.0 1070902.0 10113.0
579799.0 1070190.0 10107.0
579485.0 1070039.0 10098.0
582456.0 1070635.0 10039.0
578677.0 1069950.0 9931.0
579386.0 1071425.0 10016.0
579426.0 1071421.0 9918.0
580471.0 1073194.0 9924.0
578749.0 1069917.0 9995.0
578705.0 1069924.0 9965.0
579783.0 1072311.0 9981.0
580863.0 1074300.0 9954.0
578705.0 1070268.0 9848.0
578497.0 1070316.0 9915.0
578028.0 1069872.0 9944.0
578321.0 1070199.0 9999.0
579691.0 1072376.0 9882.0
578533.0 1070541.0 10005.0
578313.0 1070482.0 10023.0
580592.0 1074449.0 9901.0
578071.0 1070210.0 10003.0
578007.0 1070210.0 10021.0
578157.0 1070553.0 9974.0
580040.0 1074647.0 9940.0
578435.0 1072023.0 9840.0
579923.0 1074542.0 9888.0
578116.0 1071994.0 9938.0
579545.0 1074669.0 10005.0
579310.0 1074674.0 10014.0
577789.0 1072399.0 9891.0
579046.0 1074514.0 9946.0
579305.0 1074698.0 9945.0
579216.0 1074606.0 9988.0
577698.0 1072387.0 9846.0
577085.0 1072539.0 9928.0
583248.0 1071492.0 9875.0
582898.0 1071742.0 9953.0
583014.0 1071370.0 9942.0
582635.0 1071796.0 10029.0
582765.0 1071421.0 10020.0
582172.0 1072087.0 9945.0
581536.0 1073276.0 9879.0
581705.0 1072899.0 10009.0
581457.0 1072798.0 9986.0
581535.0 1072395.0 9907.0
580526.0 1074587.0 9937.0
579830.0 1074696.0 9986.0
579917.0 1072357.0 9992.0
579343.0 1072773.0 10015.0
579672.0 1069896.0 10006.0
579460.0 1069585.0 9973.0
578389.0 1070649.0 9971.0
578509.0 1070291.0 9897.0
578331.0 1070002.0 9904.0
576729.0 1072832.0 9844.0
576946.0 1071274.0 9841.0
577212.0 1070514.0 9883.0
576772.0 1071231.0 9930.0
579855.0 1074736.0 10010.0
580298.0 1074617.0 9921.0
580764.0 1074536.0 9874.0
580423.0 1074399.0 10034.0
582165.0 1073861.0 9969.0
581585.0 1073391.0 9908.0
579417.0 1072787.0 9880.0
581671.0 1073121.0 9886.0
581326.0 1073042.0 9846.0
581438.0 1072758.0 9926.0
579310.0 1072119.0 10009.0
576911.0 1071461.0 9860.0
581700.0 1072332.0 9959.0
581896.0 1072119.0 9939.0
580208.0 1071569.0 10001.0
577147.0 1070759.0 9955.0
582467.0 1071947.0 10022.0
583139.0 1071830.0 9935.0
582816.0 1071736.0 9902.0
578627.0 1070570.0 9851.0
578282.0 1070389.0 9983.0
578609.0 1070225.0 9871.0
582751.0 1071040.0 10007.0
581404.0 1070419.0 9920.0
579283.0 1069778.0 9927.0
578940.0 1069701.0 9856.0
579740.0 1069614.0 9856.0
579444.0 1069500.0 9968.0
577250.0 1072716.0 9681.0
578907.0 1070311.0 9798.0
579644.0 1071655.0 9660.0
580217.0 1072934.0 9713.0
579937.0 1072664.0 9654.0
579818.0 1072457.0 9718.0
580978.0 1074512.0 9659.0
578459.0 1070812.0 9777.0
578533.0 1070807.0 9748.0
577863.0 1070360.0 9684.0
577701.0 1070151.0 9736.0
577748.0 1070298.0 9674.0
580033.0 1074481.0 9837.0
578571.0 1072096.0 9654.0
577446.0 1070344.0 9734.0
579360.0 1073170.0 9659.0
579272.0 1072988.0 9672.0
579888.0 1074120.0 9688.0
577445.0 1070337.0 9702.0
577365.0 1070372.0 9697.0
579793.0 1074428.0 9837.0
578424.0 1072120.0 9658.0
579650.0 1074027.0 9655.0
579642.0 1074078.0 9683.0
577231.0 1070505.0 9775.0
578769.0 1073787.0 9744.0
577803.0 1072420.0 9735.0
577034.0 1071084.0 9786.0
577727.0 1072564.0 9818.0
577765.0 1073427.0 9820.0
577584.0 1073303.0 9775.0
576909.0 1073177.0 9640.0
582342.0 1073237.0 9749.0
582025.0 1073320.0 9727.0
581779.0 1073236.0 9800.0
580766.0 1074688.0 9796.0
580819.0 1074365.0 9778.0
581219.0 1073172.0 9787.0
581119.0 1072729.0 9801.0
579872.0 1074286.0 9765.0
579545.0 1074290.0 9761.0
579692.0 1074003.0 9771.0
580033.0 1071533.0 9663.0
580193.0 1071132.0 9687.0
579478.0 1072833.0 9791.0
579185.0 1073176.0 9763.0
579771.0 1069474.0 9799.0
577188.0 1073265.0 9700.0
577397.0 1072489.0 9725.0
576921.0 1072971.0 9641.0
577096.0 1072591.0 9658.0
576586.0 1073201.0 9661.0
576836.0 1072432.0 9767.0
577186.0 1071203.0 9713.0
577320.0 1070796.0 9797.0
577446.0 1070457.0 9676.0
576587.0 1072425.0 9782.0
581065.0 1074687.0 9780.0
579723.0 1074246.0 9770.0
576651.0 1073042.0 9705.0
579090.0 1073401.0 9771.0
577313.0 1072926.0 9669.0
576987.0 1072762.0 9776.0
580381.0 1073466.0 9700.0
579317.0 1073077.0 9823.0
582012.0 1073222.0 9802.0
580993.0 1072974.0 9737.0
579868.0 1072648.0 9817.0
581079.0 1072738.0 9724.0
579675.0 1072312.0 9768.0
577265.0 1071601.0 9740.0
581294.0 1072345.0 9654.0
581525.0 1072115.0 9666.0
580853.0 1071839.0 9795.0
577375.0 1070844.0 9722.0
577884.0 1070449.0 9638.0
583162.0 1071542.0 9806.0
578681.0 1069969.0 9691.0
581716.0 1070538.0 9689.0
579666.0 1069922.0 9822.0
576472.0 1073069.0 9598.0
576717.0 1073151.0 9508.0
577157.0 1072808.0 9592.0
579943.0 1071744.0 9481.0
579716.0 1071666.0 9482.0
579687.0 1071653.0 9561.0
578827.0 1070990.0 9550.0
579708.0 1072526.0 9474.0
580030.0 1073303.0 9628.0
580749.0 1074332.0 9501.0
577809.0 1070219.0 9629.0
578374.0 1071003.0 9453.0
579492.0 1072963.0 9600.0
579868.0 1073868.0 9524.0
577865.0 1070618.0 9547.0
577916.0 1070762.0 9461.0
577497.0 1070621.0 9606.0
579081.0 1073340.0 9619.0
578815.0 1073694.0 9552.0
578843.0 1073873.0 9637.0
577972.0 1072329.0 9544.0
576987.0 1071193.0 9488.0
576901.0 1071197.0 9485.0
577752.0 1072584.0 9598.0
578700.0 1073988.0 9546.0
576937.0 1071376.0 9519.0
578613.0 1073971.0 9503.0
579453.0 1075279.0 9450.0
576974.0 1072591.0 9587.0
577172.0 1072975.0 9539.0
576793.0 1072536.0 9526.0
576561.0 1072567.0 9581.0
576684.0 1073047.0 9605.0
576579.0 1072867.0 9607.0
576654.0 1073057.0 9607.0
582467.0 1073618.0 9516.0
580510.0 1074166.0 9530.0
580798.0 1073022.0 9538.0
581116.0 1072311.0 9518.0
581660.0 1070430.0 9557.0
579889.0 1073863.0 9498.0
579783.0 1073168.0 9513.0
579913.0 1072830.0 9615.0
580010.0 1072443.0 9512.0
580720.0 1070229.0 9525.0
579709.0 1072719.0 9615.0
580221.0 1070718.0 9450.0
580410.0 1070396.0 9608.0
579721.0 1071676.0 9524.0
579316.0 1072318.0 9498.0
580115.0 1069767.0 9500.0
580191.0 1069431.0 9445.0
578764.0 1072217.0 9471.0
579475.0 1070241.0 9635.0
578464.0 1072113.0 9438.0
578824.0 1071079.0 9584.0
577387.0 1073355.0 9470.0
577633.0 1072588.0 9522.0
577790.0 1072181.0 9538.0
577240.0 1072863.0 9539.0
577513.0 1072132.0 9609.0
577619.0 1070625.0 9572.0
577264.0 1073588.0 9583.0
579841.0 1074026.0 9610.0
577005.0 1073098.0 9635.0
580782.0 1074076.0 9440.0
580458.0 1073934.0 9538.0
578005.0 1073226.0 9488.0
580469.0 1073223.0 9540.0
577580.0 1072356.0 9577.0
582371.0 1073431.0 9555.0
580615.0 1072960.0 9501.0
579515.0 1072675.0 9536.0
577774.0 1072115.0 9552.0
580707.0 1072738.0 9443.0
577190.0 1071391.0 9594.0
579585.0 1071852.0 9563.0
577737.0 1070721.0 9500.0
577571.0 1070382.0 9614.0
580338.0 1070836.0 9567.0
580474.0 1070588.0 9478.0
580673.0 1070361.0 9457.0
581463.0 1070220.0 9631.0
580405.0 1069976.0 9439.0
580091.0 1069881.0 9469.0
579764.0 1071769.0 9393.0
580482.0 1072866.0 9430.0
580444.0 1072849.0 9375.0
580509.0 1074020.0 9376.0
578962.0 1071090.0 9329.0
580420.0 1073722.0 9348.0
580531.0 1073993.0 9335.0
580385.0 1073987.0 9424.0
580510.0 1074279.0 9254.0
578372.0 1071216.0 9357.0
578184.0 1071060.0 9354.0
578232.0 1071166.0 9269.0
579668.0 1073691.0 9377.0
578090.0 1071022.0 9360.0
578945.0 1072381.0 9430.0
579444.0 1073567.0 9414.0
578374.0 1072339.0 9401.0
577233.0 1070961.0 9262.0
578821.0 1073600.0 9433.0
578770.0 1073743.0 9436.0
578718.0 1073801.0 9399.0
578013.0 1072776.0 9273.0
577921.0 1072732.0 9381.0
577907.0 1072720.0 9383.0
577097.0 1072193.0 9347.0
577374.0 1073344.0 9280.0
577241.0 1073347.0 9373.0
577605.0 1074061.0 9256.0
582488.0 1073282.0 9381.0
582079.0 1069985.0 9372.0
581921.0 1069736.0 9382.0
580091.0 1073048.0 9284.0
579629.0 1073535.0 9400.0
580559.0 1070591.0 9424.0
580212.0 1070053.0 9376.0
578920.0 1073513.0 9316.0
578513.0 1073870.0 9374.0
576964.0 1073561.0 9384.0
577309.0 1071359.0 9324.0
577484.0 1074511.0 9336.0
578641.0 1074055.0 9303.0
580547.0 1074285.0 9388.0
579737.0 1073754.0 9315.0
579403.0 1073671.0 9332.0
577647.0 1073108.0 9431.0
576652.0 1072830.0 9355.0
577556.0 1072778.0 9353.0
576903.0 1072618.0 9361.0
582578.0 1073900.0 9356.0
580100.0 1073135.0 9418.0
577911.0 1072552.0 9321.0
582646.0 1073610.0 9430.0
578273.0 1072049.0 9383.0
577591.0 1071842.0 9303.0
577537.0 1071624.0 9247.0
580948.0 1072346.0 9352.0
578810.0 1071134.0 9390.0
578438.0 1071033.0 9378.0
579742.0 1070463.0 9275.0
580320.0 1070276.0 9420.0
581068.0 1070224.0 9357.0
580258.0 1069641.0 9415.0
580139.0 1072991.0 9195.0
581249.0 1074644.0 9078.0
581173.0 1074737.0 9101.0
579388.0 1071555.0 9070.0
580546.0 1073788.0 9172.0
577516.0 1071256.0 9212.0
578467.0 1072648.0 9052.0
577446.0 1071385.0 9206.0
578159.0 1072866.0 9107.0
578835.0 1074025.0 9166.0
577616.0 1073074.0 9237.0
577600.0 1073967.0 9168.0
581298.0 1074810.0 9055.0
581113.0 1074590.0 9160.0
582486.0 1070218.0 9112.0
581777.0 1071630.0 9147.0
581447.0 1071934.0 9226.0
581801.0 1070322.0 9227.0
580612.0 1072351.0 9153.0
579904.0 1073426.0 9138.0
579200.0 1073756.0 9220.0
579362.0 1071600.0 9093.0
578186.0 1073749.0 9191.0
578496.0 1072564.0 9054.0
578906.0 1071373.0 9183.0
578112.0 1072830.0 9101.0
577826.0 1072830.0 9220.0
577408.0 1072969.0 9158.0
576917.0 1071532.0 9210.0
577598.0 1074321.0 9234.0
581312.0 1075233.0 9141.0
581343.0 1075004.0 9065.0
581193.0 1074623.0 9102.0
580878.0 1074482.0 9125.0
578352.0 1073448.0 9112.0
578231.0 1073072.0 9077.0
577187.0 1072791.0 9148.0
578243.0 1072762.0 9053.0
580331.0 1072740.0 9147.0
577427.0 1071350.0 9226.0
577073.0 1071362.0 9052.0
576770.0 1071218.0 9201.0
580398.0 1072047.0 9146.0
579117.0 1071576.0 9142.0
581690.0 1071729.0 9103.0
579610.0 1070807.0 9094.0
581346.0 1070361.0 9053.0
582277.0 1069933.0 9224.0
581922.0 1069839.0 9198.0
578126.0 1073749.0 8882.0
580956.0 1073877.0 8979.0
580920.0 1073848.0 8987.0
581518.0 1074565.0 8946.0
581238.0 1074075.0 8902.0
579501.0 1071048.0 8972.0
581167.0 1073894.0 8861.0
580663.0 1073680.0 8977.0
579653.0 1071929.0 8854.0
580961.0 1073750.0 8875.0
580572.0 1073632.0 8884.0
580597.0 1073635.0 8878.0
579969.0 1073445.0 8957.0
577840.0 1071448.0 8944.0
578537.0 1072701.0 8955.0
577671.0 1071384.0 8972.0
578577.0 1072779.0 8860.0
577350.0 1070963.0 8909.0
578982.0 1073975.0 8888.0
577029.0 1071403.0 8943.0
578194.0 1073547.0 8913.0
577850.0 1073146.0 8985.0
578471.0 1074184.0 8904.0
579268.0 1075466.0 8953.0
576846.0 1072548.0 9004.0
577128.0 1073102.0 9013.0
577741.0 1073879.0 8918.0
577606.0 1073947.0 8945.0
582166.0 1074553.0 8861.0
582742.0 1073043.0 8925.0
581547.0 1074699.0 8875.0
581362.0 1074389.0 8856.0
582839.0 1069784.0 8899.0
581140.0 1074198.0 8892.0
582572.0 1069831.0 8982.0
580669.0 1073842.0 8889.0
582054.0 1069586.0 8865.0
579240.0 1075343.0 9033.0
578977.0 1072645.0 8898.0
579550.0 1070831.0 8886.0
578729.0 1072639.0 8929.0
578350.0 1072945.0 8922.0
577640.0 1074358.0 9025.0
577524.0 1071334.0 8961.0
579151.0 1075497.0 8853.0
581636.0 1075159.0 8869.0
581568.0 1074822.0 8860.0
581467.0 1074463.0 8838.0
580986.0 1073976.0 8850.0
580655.0 1073803.0 8956.0
577877.0 1073037.0 9023.0
577192.0 1072487.0 9006.0
580182.0 1073016.0 9001.0
578770.0 1072677.0 8869.0
580392.0 1072568.0 9009.0
582945.0 1073107.0 8942.0
579412.0 1071816.0 8841.0
578004.0 1071361.0 8850.0
577659.0 1071311.0 8850.0
581277.0 1072089.0 8866.0
581959.0 1071536.0 8857.0
580986.0 1070655.0 8915.0
580955.0 1069995.0 9003.0
582721.0 1069898.0 8942.0
582074.0 1069681.0 8983.0
582443.0 1069565.0 8847.0
577239.0 1073261.0 8696.0
577219.0 1070928.0 8727.0
581884.0 1074853.0 8729.0
581582.0 1074787.0 8837.0
579402.0 1070984.0 8775.0
579313.0 1070897.0 8778.0
579479.0 1071015.0 8784.0
581836.0 1075033.0 8776.0
581719.0 1075047.0 8695.0
580372.0 1073418.0 8758.0
581441.0 1075097.0 8693.0
579624.0 1071865.0 8739.0
580277.0 1073537.0 8661.0
580189.0 1073431.0 8714.0
580229.0 1073515.0 8661.0
579306.0 1072684.0 8654.0
579305.0 1072585.0 8758.0
580593.0 1074592.0 8817.0
580278.0 1074662.0 8658.0
578729.0 1072872.0 8719.0
577713.0 1071506.0 8814.0
577639.0 1071479.0 8753.0
578548.0 1072879.0 8791.0
577710.0 1071542.0 8778.0
578655.0 1073007.0 8756.0
579618.0 1074515.0 8669.0
577853.0 1071616.0 8679.0
578731.0 1072975.0 8675.0
577273.0 1070852.0 8758.0
579893.0 1075048.0 8681.0
579526.0 1074675.0 8665.0
577186.0 1071310.0 8756.0
579393.0 1075034.0 8788.0
578440.0 1073874.0 8813.0
578290.0 1074083.0 8696.0
577928.0 1074189.0 8786.0
577714.0 1073588.0 8656.0
579123.0 1076031.0 8745.0
578997.0 1075839.0 8640.0
582476.0 1073814.0 8772.0
581832.0 1074662.0 8772.0
582373.0 1072853.0 8639.0
581416.0 1075023.0 8757.0
581598.0 1074302.0 8681.0
582734.0 1070857.0 8749.0
581793.0 1072808.0 8666.0
581513.0 1072712.0 8640.0
582052.0 1071283.0 8757.0
582565.0 1069480.0 8713.0
580919.0 1073926.0 8834.0
581240.0 1072716.0 8675.0
581336.0 1072375.0 8655.0
582346.0 1069333.0 8663.0
580064.0 1075401.0 8651.0
582136.0 1069174.0 8714.0
579886.0 1075198.0 8802.0
581181.0 1071126.0 8793.0
581519.0 1069989.0 8764.0
579269.0 1074955.0 8664.0
578864.0 1075304.0 8705.0
578740.0 1073894.0 8804.0
579113.0 1072731.0 8715.0
578411.0 1074107.0 8682.0
578572.0 1073788.0 8683.0
578795.0 1073027.0 8717.0
578150.0 1074215.0 8676.0
578572.0 1073025.0 8809.0
577771.0 1074506.0 8786.0
577940.0 1074131.0 8832.0
577754.0 1073577.0 8780.0
577129.0 1073302.0 8697.0
577765.0 1071348.0 8784.0
577569.0 1070953.0 8754.0
578858.0 1076021.0 8815.0
579320.0 1075046.0 8686.0
579485.0 1074856.0 8722.0
577780.0 1074353.0 8822.0
580330.0 1074762.0 8768.0
582085.0 1074637.0 8752.0
581771.0 1074582.0 8809.0
577237.0 1073263.0 8707.0
581315.0 1074117.0 8759.0
580364.0 1073534.0 8776.0
580018.0 1073416.0 8683.0
578904.0 1073102.0 8640.0
582697.0 1073582.0 8752.0
582243.0 1072951.0 8713.0
581904.0 1072847.0 8687.0
581577.0 1072754.0 8683.0
583102.0 1072950.0 8660.0
582777.0 1072840.0 8707.0
579726.0 1071952.0 8704.0
581140.0 1071036.0 8766.0
582760.0 1070910.0 8730.0
581722.0 1069736.0 8645.0
582472.0 1069390.0 8732.0
576734.0 1073517.0 8561.0
578812.0 1074847.0 8546.0
579087.0 1075131.0 8609.0
579157.0 1070794.0 8548.0
579268.0 1071143.0 8474.0
579274.0 1071188.0 8472.0
579711.0 1072152.0 8607.0
579599.0 1071866.0 8599.0
579640.0 1072024.0 8555.0
579535.0 1072635.0 8480.0
579397.0 1072642.0 8620.0
580247.0 1074174.0 8458.0
580036.0 1073862.0 8474.0
578473.0 1071641.0 8455.0
578927.0 1072922.0 8615.0
580091.0 1074962.0 8587.0
580102.0 1075190.0 8597.0
579620.0 1074354.0 8579.0
579322.0 1073770.0 8626.0
580226.0 1075218.0 8595.0
580159.0 1075173.0 8545.0
577143.0 1070990.0 8484.0
579087.0 1073925.0 8622.0
579438.0 1074449.0 8623.0
579128.0 1074752.0 8614.0
579078.0 1074773.0 8614.0
578735.0 1074224.0 8449.0
578411.0 1074088.0 8602.0
578945.0 1075370.0 8526.0
578092.0 1074298.0 8580.0
578089.0 1074424.0 8571.0
578462.0 1074859.0 8474.0
577969.0 1074343.0 8624.0
578302.0 1074899.0 8449.0
579049.0 1076173.0 8631.0
578023.0 1074710.0 8505.0
583305.0 1072900.0 8469.0
583032.0 1072837.0 8617.0
583101.0 1072447.0 8481.0
582942.0 1070967.0 8636.0
582060.0 1072758.0 8567.0
580293.0 1076375.0 8438.0
580157.0 1074982.0 8499.0
580922.0 1072638.0 8558.0
579674.0 1075526.0 8470.0
580117.0 1074462.0 8608.0
580599.0 1072533.0 8467.0
580762.0 1071067.0 8567.0
578562.0 1075993.0 8509.0
578864.0 1074954.0 8593.0
579538.0 1072679.0 8451.0
579064.0 1073337.0 8483.0
579194.0 1072971.0 8513.0
578810.0 1073494.0 8538.0
579480.0 1071150.0 8509.0
578140.0 1074850.0 8474.0
578262.0 1074495.0 8485.0
579344.0 1071157.0 8539.0
577987.0 1074603.0 8561.0
576987.0 1073647.0 8522.0
576683.0 1073455.0 8515.0
580235.0 1076522.0 8454.0
580336.0 1076298.0 8486.0
578151.0 1075016.0 8492.0
578237.0 1074811.0 8507.0
577903.0 1074725.0 8559.0
578089.0 1074517.0 8560.0
578226.0 1074300.0 8571.0
580084.0 1074504.0 8541.0
579305.0 1073987.0 8442.0
578681.0 1073767.0 8584.0
581665.0 1074257.0 8618.0
578895.0 1073513.0 8492.0
582570.0 1073888.0 8495.0
583288.0 1073304.0 8585.0
581237.0 1072681.0 8585.0
580524.0 1072530.0 8636.0
583422.0 1073102.0 8476.0
582431.0 1072774.0 8540.0
582095.0 1072731.0 8542.0
581408.0 1072515.0 8529.0
578301.0 1071609.0 8454.0
582998.0 1072350.0 8442.0
580738.0 1071063.0 8555.0
579591.0 1070088.0 8457.0
581458.0 1069971.0 8459.0
581998.0 1069556.0 8505.0
582131.0 1069323.0 8565.0
578189.0 1075126.0 8394.0
577733.0 1072520.0 8287.0
578809.0 1074386.0 8337.0
579288.0 1071241.0 8432.0
578949.0 1070557.0 8239.0
579583.0 1071438.0 8242.0
579002.0 1070556.0 8277.0
579801.0 1072290.0 8281.0
579915.0 1072821.0 8382.0
579883.0 1072704.0 8250.0
578883.0 1073122.0 8436.0
577425.0 1071368.0 8393.0
580037.0 1075330.0 8407.0
577551.0 1072142.0 8305.0
579767.0 1075519.0 8375.0
578804.0 1075773.0 8375.0
578204.0 1075071.0 8400.0
577857.0 1074648.0 8393.0
578635.0 1075702.0 8409.0
577778.0 1074616.0 8379.0
577978.0 1075091.0 8342.0
578291.0 1075654.0 8252.0
578169.0 1075610.0 8263.0
577654.0 1075002.0 8360.0
577682.0 1074970.0 8239.0
583374.0 1072513.0 8297.0
581862.0 1074284.0 8430.0
582780.0 1070027.0 8274.0
582544.0 1070055.0 8292.0
581547.0 1072353.0 8408.0
580240.0 1074598.0 8406.0
579744.0 1074180.0 8429.0
580527.0 1071434.0 8259.0
578919.0 1075698.0 8424.0
579502.0 1073752.0 8349.0
578570.0 1075675.0 8319.0
579044.0 1074177.0 8417.0
578288.0 1075648.0 8252.0
578807.0 1074099.0 8418.0
577933.0 1075219.0 8255.0
579463.0 1070401.0 8363.0
579563.0 1070011.0 8263.0
577815.0 1074975.0 8411.0
579412.0 1069876.0 8363.0
578497.0 1071687.0 8342.0
578181.0 1075691.0 8254.0
579117.0 1075679.0 8340.0
577766.0 1074970.0 8419.0
580251.0 1074966.0 8302.0
579997.0 1074187.0 8425.0
576825.0 1073292.0 8394.0
582251.0 1074529.0 8277.0
581983.0 1074442.0 8421.0
579534.0 1073755.0 8344.0
579399.0 1073025.0 8387.0
579535.0 1072821.0 8342.0
583374.0 1072805.0 8371.0
583308.0 1072484.0 8411.0
579170.0 1071316.0 8248.0
580574.0 1071366.0 8315.0
579169.0 1070977.0 8275.0
582551.0 1071584.0 8263.0
581957.0 1071145.0 8426.0
579471.0 1070428.0 8327.0
580521.0 1070040.0 8412.0
581139.0 1069916.0 8425.0
580428.0 1069730.0 8266.0
582981.0 1070207.0 8374.0
582359.0 1069997.0 8297.0
578186.0 1075633.0 8088.0
577105.0 1072160.0 8153.0
577615.0 1072596.0 8174.0
579006.0 1075588.0 8117.0
580354.0 1071502.0 8177.0
579385.0 1069755.0 8142.0
579361.0 1069637.0 8142.0
579493.0 1070016.0 8133.0
579208.0 1069984.0 8177.0
578923.0 1070147.0 8068.0
579308.0 1071487.0 8087.0
579811.0 1072363.0 8127.0
578755.0 1070974.0 8086.0
578608.0 1070953.0 8056.0
579040.0 1071729.0 8055.0
580554.0 1074312.0 8120.0
578556.0 1071045.0 8098.0
580439.0 1074207.0 8126.0
578880.0 1071793.0 8102.0
578696.0 1071499.0 8184.0
580509.0 1074517.0 8143.0
580126.0 1074275.0 8208.0
579709.0 1073959.0 8124.0
578442.0 1072035.0 8083.0
578339.0 1072055.0 8104.0
578290.0 1072087.0 8102.0
578387.0 1072024.0 8102.0
578222.0 1072033.0 8127.0
578216.0 1072215.0 8132.0
577401.0 1071785.0 8106.0
580152.0 1075843.0 8059.0
580097.0 1075902.0 8073.0
577457.0 1071969.0 8165.0
577466.0 1071943.0 8106.0
580125.0 1075937.0 8091.0
577474.0 1072024.0 8167.0
576956.0 1071261.0 8080.0
577614.0 1072678.0 8067.0
576870.0 1072169.0 8137.0
576797.0 1072004.0 8135.0
578393.0 1074329.0 8214.0
576898.0 1072188.0 8144.0
576739.0 1072286.0 8227.0
576601.0 1071949.0 8071.0
579073.0 1075520.0 8038.0
583650.0 1072514.0 8086.0
581489.0 1074929.0 8142.0
582236.0 1071540.0 8055.0
581746.0 1072335.0 8161.0
580275.0 1075978.0 8144.0
581748.0 1071555.0 8128.0
580280.0 1074990.0 8105.0
580276.0 1074144.0 8142.0
581042.0 1071823.0 8050.0
580042.0 1074028.0 8169.0
579687.0 1072920.0 8115.0
578621.0 1075254.0 8096.0
580570.0 1069031.0 8106.0
579502.0 1071367.0 8084.0
579268.0 1071504.0 8144.0
579742.0 1069903.0 8084.0
578934.0 1071826.0 8093.0
579715.0 1069667.0 8233.0
578582.0 1072132.0 8148.0
578717.0 1071798.0 8212.0
578285.0 1072089.0 8110.0
578645.0 1070847.0 8051.0
578015.0 1071988.0 8160.0
577712.0 1071925.0 8206.0
576860.0 1072329.0 8059.0
576659.0 1072021.0 8111.0
576401.0 1071873.0 8080.0
576114.0 1071882.0 8038.0
578492.0 1075812.0 8233.0
580202.0 1076116.0 8109.0
578451.0 1075664.0 8068.0
580217.0 1075823.0 8094.0
577529.0 1074778.0 8183.0
577448.0 1072246.0 8149.0
577072.0 1072195.0 8097.0
576727.0 1072064.0 8100.0
577795.0 1072081.0 8184.0
577422.0 1072012.0 8169.0
576660.0 1071827.0 8063.0
580088.0 1072513.0 8196.0
579770.0 1072468.0 8186.0
578725.0 1072182.0 8064.0
578398.0 1072044.0 8168.0
578045.0 1071980.0 8151.0
577671.0 1071901.0 8152.0
576994.0 1071644.0 8162.0
578639.0 1071816.0 8216.0
577252.0 1071439.0 8142.0
583664.0 1072623.0 8165.0
580536.0 1071782.0 8090.0
578820.0 1071242.0 8185.0
578772.0 1070941.0 8083.0
582180.0 1071593.0 8044.0
578924.0 1070642.0 8132.0
583321.0 1071630.0 8102.0
582951.0 1071464.0 8111.0
582260.0 1071333.0 8196.0
579084.0 1070436.0 8092.0
579485.0 1069848.0 8195.0
582506.0 1070425.0 8099.0
581653.0 1069608.0 8169.0
582053.0 1069196.0 8165.0
576473.0 1071939.0 8021.0
580581.0 1071914.0 7972.0
579822.0 1070887.0 7934.0
580446.0 1071912.0 8011.0
580324.0 1072071.0 7860.0
578799.0 1070016.0 7965.0
578766.0 1069947.0 7856.0
578720.0 1069774.0 7854.0
580853.0 1073457.0 7842.0
578828.0 1069977.0 7960.0
578658.0 1069806.0 7838.0
578744.0 1070230.0 8009.0
578391.0 1069883.0 7852.0
579375.0 1071581.0 8004.0
581501.0 1075048.0 7909.0
578458.0 1069979.0 7838.0
578550.0 1070220.0 7944.0
579340.0 1071593.0 8004.0
579264.0 1071581.0 8010.0
578591.0 1070777.0 8010.0
580932.0 1074666.0 7842.0
578514.0 1070743.0 7951.0
580845.0 1074456.0 7937.0
579834.0 1072667.0 7906.0
581354.0 1075074.0 7886.0
578410.0 1070417.0 7864.0
578339.0 1070823.0 7953.0
578156.0 1070618.0 8034.0
577805.0 1070176.0 7882.0
578762.0 1072009.0 7975.0
580153.0 1074350.0 7896.0
580001.0 1075714.0 7959.0
577107.0 1071534.0 8029.0
577096.0 1071610.0 8018.0
576803.0 1071376.0 7870.0
576673.0 1071484.0 7926.0
576583.0 1071735.0 8025.0
577434.0 1072819.0 7909.0
579140.0 1075403.0 7971.0
579236.0 1075432.0 7914.0
576570.0 1071769.0 8022.0
579146.0 1075426.0 7921.0
576451.0 1071588.0 7912.0
578507.0 1075234.0 7944.0
578917.0 1075945.0 7848.0
578879.0 1076144.0 7860.0
577671.0 1074815.0 7984.0
583583.0 1071320.0 7861.0
583694.0 1071048.0 7921.0
583292.0 1071185.0 7897.0
583431.0 1070803.0 7973.0
582898.0 1071371.0 7947.0
582212.0 1072420.0 7915.0
582863.0 1070553.0 8036.0
581966.0 1072223.0 7871.0
581943.0 1071587.0 8037.0
580673.0 1074444.0 7914.0
580007.0 1075786.0 7952.0
581193.0 1071868.0 7942.0
581453.0 1071149.0 7902.0
579704.0 1075690.0 7878.0
579195.0 1075289.0 7907.0
580334.0 1071772.0 7937.0
579723.0 1071570.0 8015.0
580277.0 1069690.0 7920.0
580431.0 1069371.0 8023.0
579352.0 1071751.0 7930.0
579611.0 1070966.0 7953.0
579726.0 1070582.0 7927.0
579841.0 1070199.0 7888.0
579958.0 1069842.0 7922.0
578778.0 1072153.0 7995.0
578282.0 1070861.0 7941.0
578662.0 1069765.0 7905.0
577848.0 1070092.0 7857.0
577051.0 1071554.0 8029.0
576712.0 1071596.0 7983.0
576853.0 1071239.0 7938.0
576461.0 1071453.0 7892.0
580488.0 1075984.0 7991.0
579857.0 1075772.0 7877.0
580004.0 1075586.0 7884.0
579266.0 1075336.0 7920.0
579364.0 1075189.0 7859.0
580387.0 1074815.0 7992.0
580621.0 1074566.0 7884.0
580337.0 1074479.0 7929.0
582477.0 1074402.0 8003.0
576501.0 1072385.0 7879.0
576345.0 1071993.0 8030.0
576289.0 1071735.0 7980.0
577304.0 1071782.0 8022.0
576598.0 1071596.0 7960.0
576242.0 1071527.0 7865.0
578974.0 1072049.0 7934.0
576887.0 1071409.0 7941.0
576881.0 1071147.0 7842.0
581929.0 1072229.0 7971.0
579501.0 1071531.0 8006.0
581554.0 1071772.0 8011.0
581199.0 1071671.0 7984.0
578416.0 1070875.0 7985.0
581804.0 1071561.0 7965.0
581430.0 1071454.0 7950.0
579646.0 1070940.0 7924.0
578527.0 1070597.0 7949.0
581559.0 1071223.0 7858.0
578738.0 1070363.0 7964.0
583024.0 1071268.0 8000.0
581979.0 1070970.0 8034.0
578858.0 1070094.0 7926.0
583689.0 1071167.0 7871.0
583349.0 1071035.0 7935.0
579802.0 1070020.0 7969.0
579769.0 1069704.0 7873.0
580560.0 1069629.0 7908.0
580257.0 1069620.0 7912.0
580577.0 1069375.0 8017.0
580687.0 1069158.0 7942.0
577088.0 1072864.0 7705.0
577290.0 1072934.0 7745.0
579022.0 1075564.0 7687.0
577145.0 1070135.0 7677.0
579406.0 1075032.0 7656.0
579850.0 1075754.0 7818.0
579975.0 1070777.0 7669.0
578705.0 1069423.0 7718.0
580354.0 1072101.0 7835.0
580248.0 1072211.0 7732.0
581035.0 1073721.0 7744.0
580974.0 1073723.0 7781.0
580921.0 1073675.0 7789.0
580609.0 1073333.0 7731.0
578455.0 1069977.0 7832.0
578339.0 1069721.0 7687.0
580523.0 1073331.0 7770.0
578347.0 1069902.0 7789.0
581372.0 1074936.0 7758.0
578030.0 1069974.0 7788.0
577958.0 1069791.0 7688.0
578093.0 1069770.0 7704.0
579962.0 1072836.0 7732.0
578397.0 1070267.0 7781.0
578020.0 1070002.0 7823.0
580865.0 1074548.0 7835.0
577942.0 1070007.0 7796.0
580809.0 1074593.0 7790.0
579240.0 1072059.0 7639.0
577564.0 1070376.0 7753.0
579978.0 1074282.0 7805.0
577472.0 1070476.0 7757.0
580380.0 1074987.0 7675.0
577297.0 1070129.0 7744.0
578484.0 1073138.0 7659.0
579808.0 1075425.0 7829.0
579647.0 1075212.0 7754.0
579772.0 1075623.0 7800.0
579396.0 1075254.0 7828.0
576550.0 1071067.0 7766.0
577815.0 1073041.0 7742.0
577711.0 1073029.0 7749.0
577463.0 1072922.0 7809.0
577531.0 1073011.0 7705.0
576365.0 1071380.0 7750.0
578834.0 1075559.0 7703.0
576573.0 1072682.0 7714.0
578601.0 1075892.0 7644.0
578754.0 1076204.0 7741.0
584200.0 1071398.0 7726.0
583936.0 1071287.0 7793.0
583443.0 1071699.0 7804.0
581052.0 1073889.0 7662.0
580259.0 1075581.0 7737.0
580360.0 1075181.0 7693.0
580855.0 1073727.0 7784.0
580931.0 1073389.0 7702.0
581669.0 1071097.0 7759.0
582390.0 1068976.0 7783.0
580651.0 1073431.0 7719.0
582150.0 1068842.0 7787.0
579792.0 1075329.0 7758.0
580390.0 1073339.0 7741.0
580677.0 1072173.0 7638.0
581541.0 1069775.0 7772.0
579542.0 1075109.0 7726.0
580519.0 1072130.0 7783.0
581341.0 1069547.0 7823.0
581493.0 1069180.0 7824.0
581638.0 1068438.0 7668.0
580836.0 1069831.0 7717.0
580955.0 1069465.0 7708.0
579500.0 1071905.0 7691.0
579163.0 1072127.0 7729.0
578322.0 1073271.0 7686.0
578056.0 1073258.0 7678.0
578780.0 1069993.0 7823.0
577530.0 1073070.0 7756.0
578495.0 1070108.0 7818.0
578126.0 1069915.0 7699.0
578264.0 1069567.0 7658.0
577315.0 1070475.0 7682.0
579621.0 1075512.0 7708.0
579709.0 1075314.0 7708.0
579496.0 1074990.0 7666.0
581854.0 1074666.0 7660.0
578092.0 1073232.0 7726.0
577742.0 1073131.0 7711.0
577392.0 1072969.0 7761.0
577014.0 1072917.0 7648.0
576656.0 1072757.0 7717.0
580881.0 1073461.0 7649.0
580544.0 1073348.0 7680.0
580181.0 1073236.0 7690.0
580257.0 1073029.0 7667.0
580304.0 1072518.0 7668.0
576542.0 1071348.0 7828.0
580438.0 1072263.0 7658.0
579377.0 1071868.0 7816.0
582266.0 1072388.0 7778.0
580847.0 1071949.0 7831.0
576989.0 1070878.0 7725.0
578047.0 1070834.0 7814.0
577074.0 1070576.0 7756.0
583663.0 1071830.0 7789.0
582592.0 1071563.0 7837.0
579808.0 1070718.0 7837.0
578371.0 1070321.0 7788.0
578059.0 1070216.0 7783.0
584021.0 1071626.0 7747.0
579886.0 1070421.0 7836.0
578480.0 1070043.0 7787.0
578121.0 1069978.0 7698.0
584021.0 1071299.0 7785.0
578720.0 1069766.0 7813.0
578334.0 1069701.0 7689.0
583519.0 1070853.0 7771.0
581589.0 1069978.0 7709.0
580888.0 1069882.0 7641.0
581256.0 1069650.0 7747.0
580905.0 1069602.0 7662.0
581341.0 1069400.0 7755.0
581660.0 1069233.0 7716.0
581306.0 1069125.0 7728.0
583552.0 1069206.0 7703.0
578648.0 1075874.0 7592.0
580213.0 1070961.0 7463.0
580179.0 1071012.0 7445.0
581397.0 1073573.0 7572.0
580109.0 1070810.0 7555.0
581430.0 1073391.0 7542.0
581443.0 1073440.0 7510.0
581353.0 1073512.0 7603.0
581820.0 1074996.0 7629.0
578332.0 1069533.0 7636.0
579500.0 1072106.0 7445.0
579524.0 1071990.0 7489.0
579982.0 1072906.0 7600.0
580366.0 1074552.0 7505.0
578495.0 1073022.0 7572.0
578640.0 1073252.0 7439.0
578165.0 1073300.0 7545.0
579687.0 1075911.0 7630.0
579670.0 1076041.0 7560.0
579523.0 1075845.0 7625.0
576949.0 1072854.0 7584.0
579613.0 1076646.0 7512.0
576991.0 1072970.0 7580.0
579249.0 1076638.0 7544.0
579187.0 1076771.0 7612.0
583351.0 1069302.0 7496.0
582189.0 1071955.0 7445.0
583035.0 1069387.0 7554.0
583198.0 1069074.0 7561.0
581101.0 1074542.0 7594.0
581205.0 1074164.0 7501.0
581298.0 1073767.0 7441.0
582636.0 1069512.0 7444.0
582790.0 1069173.0 7444.0
582563.0 1069208.0 7586.0
582193.0 1069280.0 7529.0
579230.0 1076843.0 7445.0
579373.0 1076478.0 7562.0
579415.0 1076109.0 7492.0
579548.0 1074692.0 7439.0
578929.0 1075640.0 7558.0
580368.0 1070942.0 7439.0
580670.0 1070210.0 7590.0
578517.0 1076012.0 7580.0
580111.0 1070922.0 7624.0
580245.0 1070533.0 7611.0
579334.0 1072242.0 7518.0
580023.0 1069992.0 7554.0
578708.0 1073194.0 7506.0
577862.0 1069650.0 7598.0
576450.0 1073023.0 7583.0
576681.0 1070236.0 7542.0
579218.0 1076859.0 7473.0
579352.0 1076723.0 7502.0
579470.0 1076428.0 7569.0
579174.0 1074927.0 7622.0
581588.0 1074616.0 7589.0
576661.0 1073219.0 7492.0
576391.0 1073025.0 7598.0
581113.0 1073818.0 7607.0
578617.0 1073152.0 7512.0
581187.0 1073607.0 7514.0
578776.0 1072959.0 7474.0
579264.0 1072240.0 7578.0
576476.0 1071099.0 7590.0
577355.0 1070424.0 7471.0
576656.0 1070223.0 7516.0
580133.0 1070900.0 7599.0
580227.0 1070613.0 7609.0
577788.0 1069897.0 7626.0
580458.0 1070336.0 7602.0
577937.0 1069633.0 7585.0
580714.0 1070100.0 7613.0
580042.0 1069912.0 7567.0
579347.0 1069733.0 7482.0
580992.0 1069401.0 7626.0
582655.0 1069576.0 7452.0
580939.0 1069125.0 7501.0
582996.0 1069386.0 7545.0
582646.0 1069320.0 7458.0
583194.0 1069152.0 7521.0
583466.0 1068917.0 7542.0
576670.0 1073283.0 7238.0
580446.0 1071410.0 7252.0
579647.0 1069541.0 7276.0
580404.0 1071192.0 7253.0
580148.0 1070995.0 7412.0
580347.0 1071248.0 7250.0
580140.0 1071056.0 7369.0
580146.0 1071641.0 7278.0
581942.0 1074813.0 7250.0
581745.0 1074346.0 7406.0
580155.0 1071159.0 7312.0
580119.0 1071890.0 7347.0
581370.0 1074039.0 7437.0
581460.0 1073929.0 7363.0
580012.0 1071797.0 7257.0
579499.0 1072158.0 7422.0
579561.0 1072303.0 7343.0
581056.0 1074716.0 7272.0
577642.0 1069815.0 7343.0
580462.0 1074727.0 7369.0
577254.0 1069983.0 7345.0
579242.0 1072945.0 7340.0
577521.0 1070485.0 7386.0
580386.0 1074725.0 7262.0
579516.0 1074540.0 7330.0
578466.0 1073117.0 7380.0
578559.0 1074866.0 7278.0
579543.0 1076369.0 7413.0
577412.0 1074014.0 7350.0
576563.0 1073106.0 7367.0
576577.0 1073282.0 7277.0
582880.0 1068813.0 7297.0
582291.0 1069555.0 7330.0
580349.0 1074733.0 7252.0
582023.0 1069659.0 7395.0
580225.0 1072444.0 7436.0
580420.0 1071689.0 7376.0
581428.0 1068738.0 7367.0
579391.0 1072816.0 7296.0
578890.0 1073306.0 7263.0
579054.0 1072944.0 7401.0
579851.0 1069391.0 7240.0
579534.0 1069166.0 7315.0
579530.0 1074491.0 7277.0
581633.0 1074401.0 7338.0
581472.0 1073761.0 7354.0
579062.0 1073035.0 7337.0
580729.0 1072426.0 7384.0
582194.0 1072240.0 7285.0
580407.0 1071697.0 7380.0
577341.0 1070793.0 7280.0
580292.0 1071400.0 7298.0
576996.0 1070358.0 7380.0
580465.0 1071120.0 7292.0
580807.0 1070588.0 7267.0
582009.0 1069705.0 7374.0
581670.0 1069692.0 7363.0
580271.0 1069252.0 7327.0
582303.0 1069538.0 7392.0
582290.0 1069237.0 7427.0
582823.0 1069090.0 7413.0
582452.0 1069030.0 7265.0
582103.0 1068923.0 7290.0
581758.0 1068788.0 7394.0
581382.0 1068715.0 7307.0
583074.0 1068864.0 7279.0
581758.0 1068500.0 7394.0
576689.0 1073290.0 7215.0
578577.0 1074973.0 7219.0
578706.0 1073522.0 7173.0
579293.0 1074627.0 7148.0
579709.0 1069430.0 7109.0
580377.0 1071262.0 7193.0
581604.0 1074087.0 7228.0
581774.0 1074387.0 7127.0
580005.0 1071474.0 7197.0
580095.0 1071580.0 7234.0
580000.0 1071627.0 7224.0
580079.0 1072046.0 7212.0
580060.0 1072167.0 7136.0
579866.0 1072856.0 7111.0
580366.0 1074229.0 7085.0
580387.0 1074443.0 7127.0
580756.0 1074968.0 7070.0
580419.0 1074514.0 7124.0
580573.0 1074903.0 7218.0
580270.0 1074621.0 7084.0
580357.0 1074919.0 7103.0
580403.0 1074939.0 7060.0
577434.0 1070501.0 7223.0
580401.0 1075077.0 7137.0
579536.0 1074299.0 7071.0
580361.0 1075726.0 7182.0
579523.0 1074429.0 7177.0
579501.0 1074488.0 7224.0
579155.0 1074434.0 7047.0
579125.0 1074550.0 7081.0
579114.0 1074675.0 7044.0
578245.0 1073546.0 7107.0
578255.0 1073511.0 7125.0
578975.0 1074796.0 7165.0
578146.0 1073560.0 7071.0
578446.0 1074424.0 7041.0
578341.0 1074877.0 7213.0
581624.0 1074404.0 7216.0
581312.0 1074485.0 7234.0
581516.0 1073762.0 7219.0
583219.0 1068666.0 7225.0
580568.0 1075630.0 7136.0
580800.0 1074834.0 7080.0
582352.0 1070273.0 7215.0
582485.0 1068803.0 7059.0
580388.0 1074399.0 7082.0
581076.0 1072185.0 7113.0
581671.0 1070344.0 7061.0
581582.0 1069923.0 7203.0
579561.0 1074304.0 7116.0
580524.0 1071307.0 7224.0
580624.0 1070942.0 7093.0
579660.0 1072857.0 7147.0
580088.0 1071734.0 7210.0
578397.0 1074786.0 7065.0
578031.0 1073582.0 7146.0
579243.0 1067989.0 7157.0
577069.0 1070362.0 7066.0
580313.0 1075136.0 7089.0
577433.0 1073900.0 7108.0
579450.0 1072947.0 7170.0
579653.0 1072850.0 7046.0
579877.0 1072666.0 7075.0
579590.0 1072510.0 7196.0
579698.0 1072262.0 7148.0
580023.0 1072054.0 7041.0
580095.0 1071669.0 7173.0
580755.0 1071231.0 7134.0
580822.0 1070965.0 7099.0
581114.0 1070658.0 7219.0
581537.0 1070194.0 7094.0
579789.0 1069703.0 7176.0
581540.0 1070003.0 7125.0
579889.0 1069213.0 7186.0
579406.0 1068526.0 7114.0
581399.0 1068431.0 7216.0
582064.0 1068369.0 7043.0
578761.0 1063127.0 7155.0
581119.0 1063175.0 7237.0
581191.0 1062836.0 7131.0
580521.0 1062988.0 7187.0
578270.0 1063057.0 7181.0
578079.0 1062829.0 7206.0
577467.0 1062553.0 7177.0
577644.0 1062252.0 7153.0
577168.0 1062589.0 7229.0
577289.0 1062238.0 7154.0
578278.0 1063028.0 7205.0
577366.0 1062545.0 7142.0
577046.0 1062501.0 7212.0
580848.0 1063194.0 7206.0
577410.0 1062334.0 7108.0
581390.0 1063105.0 7110.0
581080.0 1062987.0 7044.0
580734.0 1062897.0 7087.0
580373.0 1062816.0 7039.0
579026.0 1062417.0 7096.0
578702.0 1062303.0 7163.0
579268.0 1074183.0 6998.0
579955.0 1072340.0 6968.0
579919.0 1072323.0 6934.0
581491.0 1075049.0 6980.0
579881.0 1072345.0 6850.0
579915.0 1072236.0 6857.0
581491.0 1075171.0 6906.0
580216.0 1074126.0 6956.0
580993.0 1075313.0 6843.0
580875.0 1075330.0 6898.0
580189.0 1074134.0 6905.0
577597.0 1070597.0 6998.0
580081.0 1074290.0 6934.0
577651.0 1070655.0 6848.0
578485.0 1072078.0 6931.0
580246.0 1074770.0 6941.0
576941.0 1070226.0 6845.0
580197.0 1075257.0 6964.0
580433.0 1075732.0 7033.0
577075.0 1070533.0 6891.0
579465.0 1074219.0 7010.0
578388.0 1072741.0 7037.0
579927.0 1075761.0 6859.0
578222.0 1073630.0 7007.0
578450.0 1074002.0 6985.0
578283.0 1074333.0 6949.0
578687.0 1075383.0 6849.0
578568.0 1075341.0 6853.0
581417.0 1074789.0 6949.0
581671.0 1073984.0 6932.0
581536.0 1073394.0 7006.0
582467.0 1070444.0 6879.0
581571.0 1070674.0 7022.0
580137.0 1074097.0 6899.0
581186.0 1069747.0 6867.0
579876.0 1072773.0 6843.0
578887.0 1075230.0 6884.0
578398.0 1073587.0 6908.0
578095.0 1073731.0 6878.0
579565.0 1068388.0 6948.0
579677.0 1068042.0 6966.0
581229.0 1063278.0 7011.0
579421.0 1068167.0 6969.0
580599.0 1062632.0 7018.0
579619.0 1064384.0 6944.0
580115.0 1062902.0 6929.0
580264.0 1062558.0 7010.0
579889.0 1062594.0 7003.0
579633.0 1062337.0 6873.0
578832.0 1063764.0 6935.0
578870.0 1063387.0 6891.0
578574.0 1063453.0 6897.0
578977.0 1062312.0 6989.0
576153.0 1070164.0 6887.0
575963.0 1070142.0 6963.0
578402.0 1062206.0 6902.0
577842.0 1062269.0 6974.0
577659.0 1076104.0 6845.0
581145.0 1074727.0 6969.0
580446.0 1074508.0 6922.0
579392.0 1074211.0 6999.0
579474.0 1073942.0 6857.0
581703.0 1074206.0 7029.0
581091.0 1072755.0 6867.0
581111.0 1072031.0 6980.0
576245.0 1070295.0 6899.0
575878.0 1070172.0 6988.0
583378.0 1071141.0 6876.0
582695.0 1068876.0 6975.0
582420.0 1068780.0 6992.0
579362.0 1067951.0 6915.0
583101.0 1068627.0 7024.0
580265.0 1064255.0 6999.0
578906.0 1063325.0 6922.0
578584.0 1063288.0 7015.0
577698.0 1062412.0 6991.0
580024.0 1062724.0 7022.0
579700.0 1062616.0 6988.0
577977.0 1062197.0 6909.0
580848.0 1062647.0 6940.0
580479.0 1062566.0 6891.0
579476.0 1062299.0 6859.0
577791.0 1075853.0 6723.0
577947.0 1075598.0 6772.0
576365.0 1070031.0 6730.0
576544.0 1070057.0 6746.0
578607.0 1075427.0 6803.0
578894.0 1076099.0 6740.0
576674.0 1070056.0 6766.0
578965.0 1075754.0 6654.0
580222.0 1075651.0 6772.0
576632.0 1063641.0 6705.0
579576.0 1068894.0 6699.0
579314.0 1068169.0 6794.0
581738.0 1073900.0 6782.0
579676.0 1071339.0 6784.0
579651.0 1071353.0 6789.0
578057.0 1069171.0 6754.0
577975.0 1069148.0 6755.0
581661.0 1074907.0 6819.0
580115.0 1073677.0 6650.0
581049.0 1075180.0 6778.0
580022.0 1073885.0 6767.0
579996.0 1073898.0 6775.0
577383.0 1069726.0 6799.0
580184.0 1073979.0 6821.0
581108.0 1075365.0 6720.0
577764.0 1070678.0 6837.0
577079.0 1069765.0 6837.0
579988.0 1074058.0 6820.0
577824.0 1070805.0 6686.0
576916.0 1069714.0 6792.0
578579.0 1072193.0 6721.0
578029.0 1071858.0 6681.0
576730.0 1070010.0 6786.0
577908.0 1071673.0 6677.0
576973.0 1070386.0 6837.0
577880.0 1071675.0 6822.0
577926.0 1071721.0 6666.0
580389.0 1075474.0 6788.0
576625.0 1069991.0 6726.0
578358.0 1072537.0 6823.0
576681.0 1070192.0 6731.0
576328.0 1069944.0 6732.0
576199.0 1070306.0 6707.0
576135.0 1070392.0 6829.0
578014.0 1073816.0 6749.0
579111.0 1075406.0 6767.0
578152.0 1074683.0 6718.0
578980.0 1075822.0 6642.0
579003.0 1076124.0 6650.0
578297.0 1075375.0 6736.0
577990.0 1075327.0 6660.0
578762.0 1076321.0 6683.0
578073.0 1075490.0 6677.0
577901.0 1075228.0 6750.0
578029.0 1075588.0 6697.0
581465.0 1075324.0 6660.0
581245.0 1075142.0 6772.0
580918.0 1075171.0 6769.0
581002.0 1074849.0 6766.0
582324.0 1070750.0 6761.0
580622.0 1075223.0 6781.0
580795.0 1074451.0 6734.0
581920.0 1071003.0 6764.0
581145.0 1072594.0 6828.0
581331.0 1071008.0 6734.0
581325.0 1070268.0 6818.0
578729.0 1076526.0 6784.0
579540.0 1073885.0 6756.0
579765.0 1068953.0 6771.0
579867.0 1068556.0 6680.0
579972.0 1068195.0 6645.0
579695.0 1068621.0 6797.0
579780.0 1068256.0 6827.0
580921.0 1063995.0 6800.0
580604.0 1064293.0 6787.0
580308.0 1063995.0 6662.0
579689.0 1064054.0 6698.0
577052.0 1070026.0 6700.0
579176.0 1062174.0 6664.0
577748.0 1064987.0 6747.0
578729.0 1062086.0 6825.0
577501.0 1062964.0 6664.0
577659.0 1062586.0 6716.0
576617.0 1063698.0 6713.0
577918.0 1075700.0 6701.0
580565.0 1076155.0 6717.0
578423.0 1075488.0 6760.0
580660.0 1075904.0 6782.0
578636.0 1075371.0 6658.0
578790.0 1074479.0 6746.0
577993.0 1073913.0 6687.0
579922.0 1073822.0 6726.0
581747.0 1074087.0 6683.0
579691.0 1071729.0 6745.0
579476.0 1071323.0 6780.0
577660.0 1070763.0 6755.0
581105.0 1071484.0 6776.0
579320.0 1071010.0 6707.0
577574.0 1070503.0 6687.0
577252.0 1070331.0 6822.0
576882.0 1070217.0 6834.0
576521.0 1070125.0 6760.0
577022.0 1070027.0 6711.0
576680.0 1069916.0 6712.0
582864.0 1070732.0 6758.0
581182.0 1070325.0 6683.0
579722.0 1068764.0 6753.0
579654.0 1068414.0 6830.0
579983.0 1068269.0 6654.0
579671.0 1068115.0 6748.0
577718.0 1065030.0 6748.0
578127.0 1064539.0 6763.0
579600.0 1064374.0 6777.0
579511.0 1064126.0 6723.0
580735.0 1064184.0 6791.0
580369.0 1064096.0 6730.0
579660.0 1063958.0 6648.0
578596.0 1063576.0 6767.0
580946.0 1064007.0 6809.0
580590.0 1063937.0 6727.0
577486.0 1063009.0 6688.0
579151.0 1062206.0 6823.0
579711.0 1062106.0 6671.0
578349.0 1072238.0 6490.0
576606.0 1063585.0 6587.0
576616.0 1063377.0 6572.0
581289.0 1072028.0 6626.0
579322.0 1068259.0 6562.0
579588.0 1069038.0 6450.0
576201.0 1063213.0 6518.0
576588.0 1063781.0 6570.0
580335.0 1070683.0 6620.0
581748.0 1073152.0 6599.0
580414.0 1070803.0 6444.0
576306.0 1063507.0 6573.0
576294.0 1063489.0 6457.0
581531.0 1073021.0 6563.0
581673.0 1073283.0 6529.0
582090.0 1074721.0 6508.0
579101.0 1069501.0 6503.0
579017.0 1069541.0 6562.0
578646.0 1069561.0 6525.0
579203.0 1070711.0 6538.0
579007.0 1070527.0 6566.0
579078.0 1070671.0 6537.0
579076.0 1070684.0 6482.0
578971.0 1070484.0 6495.0
578482.0 1069509.0 6486.0
579360.0 1071053.0 6634.0
578811.0 1070517.0 6474.0
578909.0 1071715.0 6460.0
578870.0 1071733.0 6465.0
578287.0 1071059.0 6602.0
578756.0 1071780.0 6518.0
578360.0 1071121.0 6593.0
578501.0 1071201.0 6561.0
578988.0 1071851.0 6465.0
579944.0 1073324.0 6458.0
577992.0 1070372.0 6566.0
578873.0 1071685.0 6471.0
578192.0 1070914.0 6634.0
578750.0 1071694.0 6483.0
578691.0 1071889.0 6551.0
578011.0 1070974.0 6615.0
577899.0 1071963.0 6485.0
576867.0 1070770.0 6619.0
580137.0 1075898.0 6583.0
576250.0 1070302.0 6577.0
577662.0 1073836.0 6489.0
578917.0 1075686.0 6584.0
578200.0 1075018.0 6461.0
578062.0 1075298.0 6634.0
578656.0 1076148.0 6590.0
578673.0 1076267.0 6566.0
578673.0 1076183.0 6542.0
578669.0 1076162.0 6555.0
583253.0 1070873.0 6582.0
582956.0 1070679.0 6629.0
581518.0 1072963.0 6521.0
580282.0 1075994.0 6508.0
581295.0 1072892.0 6606.0
581125.0 1071373.0 6540.0
581084.0 1070567.0 6568.0
578785.0 1076121.0 6622.0
578879.0 1075741.0 6619.0
579598.0 1073499.0 6498.0
579134.0 1070808.0 6583.0
579413.0 1069636.0 6447.0
579629.0 1069329.0 6501.0
578516.0 1071292.0 6502.0
578247.0 1071232.0 6490.0
577755.0 1071859.0 6464.0
578009.0 1071089.0 6538.0
577826.0 1070722.0 6625.0
580061.0 1063669.0 6518.0
579832.0 1063250.0 6503.0
576796.0 1070662.0 6550.0
577103.0 1069633.0 6525.0
577790.0 1064585.0 6542.0
577324.0 1063307.0 6534.0
577041.0 1063262.0 6578.0
576693.0 1063305.0 6584.0
576329.0 1063689.0 6592.0
576472.0 1063344.0 6622.0
576616.0 1062946.0 6582.0
576222.0 1063447.0 6533.0
576004.0 1063308.0 6465.0
580332.0 1076445.0 6475.0
580355.0 1075925.0 6586.0
581529.0 1075314.0 6619.0
577605.0 1073884.0 6525.0
579608.0 1073775.0 6570.0
581369.0 1072938.0 6605.0
578613.0 1071522.0 6449.0
578266.0 1071397.0 6457.0
578002.0 1070981.0 6551.0
581118.0 1071273.0 6560.0
579084.0 1070685.0 6534.0
577357.0 1070148.0 6625.0
582992.0 1071101.0 6624.0
582674.0 1071057.0 6482.0
583188.0 1070866.0 6602.0
579098.0 1069775.0 6520.0
582924.0 1070620.0 6588.0
579378.0 1069596.0 6515.0
577726.0 1064769.0 6623.0
577815.0 1064524.0 6542.0
576565.0 1063869.0 6594.0
576243.0 1063756.0 6515.0
576505.0 1063568.0 6608.0
576169.0 1063527.0 6521.0
578386.0 1063888.0 6497.0
578134.0 1063776.0 6474.0
577392.0 1063588.0 6483.0
577073.0 1063500.0 6516.0
576733.0 1063393.0 6595.0
576374.0 1063297.0 6577.0
577120.0 1063292.0 6556.0
576760.0 1063156.0 6570.0
580249.0 1063864.0 6611.0
579906.0 1063810.0 6493.0
580379.0 1063620.0 6582.0
580024.0 1063569.0 6468.0
577653.0 1062846.0 6599.0
577708.0 1071920.0 6319.0
580185.0 1076510.0 6431.0
579824.0 1069304.0 6267.0
580573.0 1070817.0 6369.0
579392.0 1068489.0 6429.0
577182.0 1064206.0 6295.0
580930.0 1071220.0 6400.0
577022.0 1064576.0 6308.0
577285.0 1065318.0 6428.0
579933.0 1069276.0 6255.0
579854.0 1069278.0 6256.0
579486.0 1068882.0 6273.0
581016.0 1071609.0 6292.0
579460.0 1068866.0 6335.0
581652.0 1073119.0 6349.0
578791.0 1069648.0 6321.0
578827.0 1070030.0 6386.0
578469.0 1069690.0 6323.0
578405.0 1069706.0 6298.0
578519.0 1069974.0 6317.0
578654.0 1070271.0 6407.0
579297.0 1072139.0 6344.0
579871.0 1073199.0 6260.0
579767.0 1073496.0 6418.0
579736.0 1073541.0 6427.0
577604.0 1071184.0 6299.0
577605.0 1071273.0 6295.0
577742.0 1071891.0 6375.0
580527.0 1076084.0 6252.0
580466.0 1076320.0 6278.0
580440.0 1076422.0 6309.0
577562.0 1073943.0 6397.0
577250.0 1073618.0 6330.0
577202.0 1073923.0 6350.0
577156.0 1073943.0 6336.0
577237.0 1074061.0 6263.0
577227.0 1074038.0 6275.0
577277.0 1074103.0 6265.0
580333.0 1076231.0 6263.0
580602.0 1075492.0 6386.0
581677.0 1072225.0 6357.0
580494.0 1075195.0 6393.0
581248.0 1071782.0 6407.0
579652.0 1073088.0 6326.0
578096.0 1074699.0 6316.0
578789.0 1070180.0 6366.0
577330.0 1073991.0 6366.0
578535.0 1070014.0 6290.0
578663.0 1069621.0 6276.0
577024.0 1073894.0 6299.0
577937.0 1069912.0 6275.0
578182.0 1069205.0 6249.0
579792.0 1064397.0 6386.0
579839.0 1064026.0 6394.0
579670.0 1063614.0 6385.0
577323.0 1069869.0 6419.0
579388.0 1063320.0 6330.0
577480.0 1064544.0 6297.0
577008.0 1065078.0 6244.0
577106.0 1064657.0 6243.0
577403.0 1063875.0 6314.0
577530.0 1063500.0 6334.0
577041.0 1064043.0 6410.0
577163.0 1063683.0 6398.0
580250.0 1076252.0 6393.0
578997.0 1071982.0 6305.0
577914.0 1071300.0 6405.0
581314.0 1071984.0 6361.0
578358.0 1071151.0 6432.0
580376.0 1070752.0 6292.0
578943.0 1070364.0 6408.0
580970.0 1070623.0 6391.0
578883.0 1070019.0 6412.0
578502.0 1069969.0 6255.0
578733.0 1069721.0 6339.0
578360.0 1069656.0 6241.0
579488.0 1069440.0 6346.0
579762.0 1069250.0 6360.0
580606.0 1068930.0 6314.0
579930.0 1068732.0 6339.0
577308.0 1065060.0 6349.0
577887.0 1064369.0 6308.0
577229.0 1064177.0 6326.0
579929.0 1064577.0 6383.0
577479.0 1063907.0 6431.0
577172.0 1063876.0 6372.0
579832.0 1064335.0 6424.0
579910.0 1064177.0 6351.0
578208.0 1063673.0 6297.0
577467.0 1063420.0 6412.0
579643.0 1063520.0 6338.0
579748.0 1063256.0 6303.0
577128.0 1074031.0 6234.0
579633.0 1074511.0 6107.0
577393.0 1064561.0 6133.0
577294.0 1064335.0 6203.0
577362.0 1064591.0 6137.0
580809.0 1071214.0 6177.0
576985.0 1063868.0 6152.0
577339.0 1064448.0 6167.0
580766.0 1071046.0 6180.0
580732.0 1071103.0 6118.0
577033.0 1064729.0 6237.0
577131.0 1064735.0 6197.0
580722.0 1071079.0 6114.0
577153.0 1064987.0 6174.0
580482.0 1070818.0 6143.0
577064.0 1065170.0 6201.0
579659.0 1069612.0 6113.0
577081.0 1065269.0 6191.0
579531.0 1069465.0 6171.0
577094.0 1065155.0 6187.0
580455.0 1070869.0 6118.0
577017.0 1064880.0 6152.0
580538.0 1070941.0 6084.0
579760.0 1069820.0 6119.0
579561.0 1069774.0 6041.0
579409.0 1069681.0 6075.0
579277.0 1069645.0 6193.0
581775.0 1073806.0 6110.0
581775.0 1073746.0 6197.0
578896.0 1069555.0 6176.0
579015.0 1069594.0 6064.0
581384.0 1073729.0 6176.0
579016.0 1069600.0 6041.0
581177.0 1073805.0 6114.0
581258.0 1073930.0 6088.0
581124.0 1073842.0 6092.0
578380.0 1069556.0 6222.0
581217.0 1073832.0 6085.0
580916.0 1073738.0 6193.0
580687.0 1073441.0 6213.0
578308.0 1069774.0 6190.0
579361.0 1072142.0 6205.0
579509.0 1072361.0 6079.0
579905.0 1073072.0 6206.0
579838.0 1073036.0 6196.0
579335.0 1072307.0 6085.0
579378.0 1072237.0 6185.0
579086.0 1072276.0 6071.0
579721.0 1073308.0 6191.0
578968.0 1072168.0 6164.0
578924.0 1072120.0 6216.0
579646.0 1073321.0 6103.0
577636.0 1071981.0 6212.0
577188.0 1071299.0 6038.0
580560.0 1076196.0 6138.0
577176.0 1071340.0 6090.0
577241.0 1071991.0 6038.0
577351.0 1074231.0 6234.0
578054.0 1075076.0 6180.0
577277.0 1074130.0 6231.0
577760.0 1074614.0 6181.0
577234.0 1074208.0 6161.0
577097.0 1074205.0 6211.0
577000.0 1074198.0 6108.0
582160.0 1073752.0 6158.0
581379.0 1073861.0 6061.0
580390.0 1075871.0 6103.0
581199.0 1073637.0 6224.0
580331.0 1075554.0 6235.0
580877.0 1073622.0 6216.0
