573650.0 1101950.0 7501.0
574723.0 1103022.0 7465.0
566266.0 1094885.0 7478.0
569910.0 1098620.0 7629.0
575116.0 1103878.0 7628.0
569701.0 1098646.0 7636.0
572854.0 1101737.0 7500.0
566080.0 1095456.0 7584.0
570094.0 1099290.0 7637.0
572674.0 1101774.0 7456.0
569934.0 1099319.0 7565.0
566012.0 1095630.0 7465.0
570009.0 1099566.0 7462.0
569526.0 1099283.0 7501.0
572088.0 1101939.0 7447.0
570167.0 1100307.0 7634.0
571696.0 1101821.0 7630.0
568554.0 1098822.0 7614.0
568405.0 1098806.0 7574.0
570121.0 1100489.0 7615.0
568380.0 1098911.0 7518.0
570200.0 1100850.0 7514.0
568399.0 1099323.0 7494.0
568179.0 1099960.0 7498.0
571749.0 1103495.0 7618.0
571654.0 1103719.0 7504.0
564478.0 1097189.0 7456.0
570473.0 1102950.0 7609.0
571525.0 1103902.0 7594.0
568083.0 1101356.0 7562.0
568084.0 1101397.0 7462.0
567828.0 1101669.0 7620.0
571180.0 1104832.0 7614.0
566055.0 1100267.0 7621.0
566508.0 1100724.0 7584.0
565803.0 1100690.0 7506.0
572467.0 1106977.0 7456.0
566343.0 1101614.0 7591.0
565945.0 1101390.0 7516.0
568378.0 1103720.0 7454.0
569284.0 1104794.0 7523.0
571497.0 1107105.0 7553.0
565942.0 1102666.0 7631.0
563500.0 1100671.0 7620.0
564460.0 1101560.0 7538.0
565475.0 1102474.0 7574.0
563054.0 1100454.0 7528.0
563531.0 1100858.0 7469.0
564005.0 1101285.0 7442.0
564482.0 1101722.0 7497.0
567341.0 1104444.0 7561.0
569783.0 1106688.0 7609.0
562737.0 1100288.0 7609.0
569739.0 1106789.0 7530.0
562445.0 1100090.0 7506.0
564802.0 1102356.0 7637.0
566792.0 1104158.0 7441.0
567298.0 1104595.0 7455.0
569769.0 1106892.0 7567.0
566907.0 1104316.0 7497.0
568308.0 1105724.0 7597.0
569767.0 1107047.0 7594.0
561920.0 1102005.0 7470.0
564343.0 1104109.0 7448.0
561784.0 1102017.0 7438.0
564135.0 1104138.0 7524.0
561801.0 1102286.0 7577.0
563911.0 1104167.0 7601.0
568190.0 1107990.0 7528.0
561256.0 1102073.0 7470.0
561274.0 1102870.0 7556.0
562799.0 1104585.0 7520.0
565426.0 1106942.0 7614.0
565401.0 1107068.0 7608.0
562752.0 1104945.0 7600.0
562405.0 1104789.0 7455.0
562564.0 1105139.0 7459.0
561604.0 1104515.0 7592.0
562538.0 1105300.0 7467.0
559562.0 1102917.0 7565.0
560364.0 1104157.0 7586.0
564081.0 1107407.0 7635.0
559495.0 1106137.0 7508.0
559975.0 1106500.0 7451.0
575402.0 1102340.0 7582.0
573985.0 1103106.0 7610.0
573333.0 1101853.0 7494.0
571284.0 1107202.0 7524.0
571994.0 1104201.0 7576.0
572036.0 1103761.0 7460.0
571702.0 1104320.0 7608.0
571784.0 1103885.0 7542.0
571863.0 1103449.0 7453.0
571293.0 1104871.0 7602.0
571497.0 1104059.0 7636.0
571937.0 1101969.0 7451.0
572141.0 1101181.0 7622.0
571181.0 1102496.0 7450.0
571313.0 1102079.0 7488.0
569965.0 1106260.0 7630.0
570500.0 1103807.0 7472.0
570948.0 1102235.0 7515.0
569668.0 1106527.0 7585.0
569506.0 1106496.0 7553.0
570482.0 1102171.0 7509.0
569688.0 1104823.0 7592.0
568666.0 1108021.0 7504.0
569328.0 1104933.0 7494.0
569983.0 1101153.0 7471.0
568217.0 1107735.0 7597.0
570226.0 1097861.0 7558.0
569983.0 1097411.0 7441.0
570348.0 1096187.0 7598.0
570085.0 1096012.0 7633.0
566902.0 1106597.0 7457.0
569504.0 1095720.0 7488.0
567111.0 1104495.0 7452.0
567818.0 1101585.0 7497.0
568039.0 1100808.0 7597.0
568553.0 1098757.0 7610.0
569258.0 1095913.0 7619.0
567852.0 1100718.0 7501.0
566244.0 1105058.0 7461.0
566737.0 1101958.0 7623.0
566258.0 1101723.0 7590.0
566474.0 1100440.0 7541.0
567953.0 1094883.0 7606.0
566346.0 1100211.0 7503.0
566115.0 1100511.0 7482.0
564426.0 1106906.0 7521.0
565451.0 1102312.0 7628.0
563853.0 1107851.0 7438.0
563037.0 1110139.0 7508.0
564287.0 1104239.0 7459.0
564685.0 1102483.0 7454.0
563959.0 1104438.0 7510.0
564078.0 1104027.0 7597.0
563644.0 1104600.0 7613.0
563374.0 1104322.0 7607.0
564646.0 1097047.0 7493.0
562655.0 1104905.0 7592.0
563491.0 1100927.0 7442.0
564452.0 1097017.0 7606.0
562497.0 1104417.0 7478.0
563048.0 1100208.0 7466.0
562734.0 1100314.0 7551.0
562490.0 1100093.0 7578.0
562147.0 1100217.0 7486.0
561476.0 1102213.0 7480.0
561973.0 1100009.0 7546.0
561144.0 1102858.0 7577.0
561266.0 1101985.0 7486.0
559910.0 1107153.0 7528.0
560063.0 1106282.0 7488.0
560564.0 1104119.0 7506.0
559772.0 1106784.0 7587.0
559631.0 1106330.0 7464.0
560199.0 1103582.0 7444.0
560384.0 1102700.0 7447.0
560029.0 1103735.0 7630.0
560279.0 1102491.0 7592.0
559965.0 1102819.0 7570.0
563257.0 1110401.0 7612.0
569226.0 1112510.0 7568.0
569634.0 1112396.0 7598.0
560250.0 1107749.0 7569.0
559927.0 1107229.0 7581.0
559539.0 1106247.0 7470.0
564424.0 1107067.0 7589.0
568808.0 1108186.0 7626.0
565615.0 1106978.0 7633.0
562178.0 1105169.0 7459.0
566780.0 1106678.0 7552.0
560582.0 1104248.0 7508.0
562671.0 1104818.0 7577.0
560761.0 1104135.0 7457.0
560369.0 1103917.0 7636.0
562847.0 1104548.0 7630.0
563152.0 1104364.0 7471.0
559956.0 1103123.0 7446.0
571394.0 1107128.0 7440.0
564266.0 1104352.0 7578.0
563935.0 1104250.0 7591.0
560130.0 1102806.0 7483.0
567530.0 1105223.0 7634.0
567152.0 1105117.0 7567.0
564250.0 1104075.0 7446.0
561277.0 1102947.0 7445.0
561960.0 1102541.0 7575.0
561609.0 1102400.0 7635.0
561367.0 1102134.0 7468.0
569468.0 1104922.0 7630.0
566875.0 1103903.0 7637.0
561067.0 1101795.0 7465.0
569694.0 1104725.0 7502.0
571511.0 1105050.0 7550.0
565511.0 1102516.0 7458.0
571604.0 1104433.0 7618.0
571768.0 1104246.0 7584.0
570644.0 1103843.0 7633.0
571906.0 1104033.0 7633.0
571541.0 1103918.0 7599.0
569760.0 1103225.0 7576.0
566493.0 1102091.0 7483.0
565735.0 1101771.0 7564.0
565372.0 1101678.0 7452.0
562514.0 1100526.0 7564.0
573895.0 1104524.0 7460.0
571943.0 1103851.0 7546.0
569370.0 1102837.0 7623.0
565902.0 1101629.0 7541.0
561725.0 1100018.0 7496.0
561343.0 1099874.0 7594.0
567113.0 1101847.0 7483.0
565979.0 1101475.0 7461.0
562720.0 1100178.0 7542.0
562369.0 1100015.0 7609.0
561996.0 1099905.0 7574.0
561624.0 1099819.0 7525.0
561222.0 1099668.0 7512.0
568150.0 1101654.0 7514.0
567798.0 1101521.0 7456.0
575083.0 1103768.0 7549.0
572987.0 1103055.0 7466.0
569390.0 1101804.0 7471.0
568256.0 1101316.0 7586.0
566100.0 1100546.0 7468.0
571453.0 1102132.0 7562.0
571104.0 1102074.0 7464.0
567936.0 1100874.0 7499.0
572944.0 1102281.0 7587.0
575705.0 1103013.0 7633.0
572852.0 1101823.0 7490.0
568185.0 1100050.0 7577.0
571938.0 1101132.0 7487.0
569994.0 1099477.0 7481.0
568531.0 1098855.0 7557.0
570206.0 1099260.0 7559.0
564516.0 1097161.0 7531.0
572623.0 1099886.0 7451.0
564744.0 1097036.0 7446.0
564471.0 1096897.0 7553.0
564569.0 1096652.0 7621.0
570959.0 1098700.0 7551.0
570597.0 1098527.0 7628.0
570019.0 1097960.0 7616.0
571916.0 1098399.0 7493.0
570103.0 1097696.0 7548.0
569909.0 1097419.0 7463.0
567398.0 1096447.0 7551.0
569856.0 1097151.0 7576.0
567352.0 1096283.0 7509.0
565586.0 1095358.0 7600.0
570135.0 1096761.0 7590.0
570290.0 1096555.0 7513.0
567005.0 1095364.0 7484.0
570569.0 1096309.0 7607.0
570193.0 1096168.0 7617.0
569463.0 1095928.0 7579.0
570276.0 1095923.0 7632.0
567385.0 1094986.0 7454.0
567943.0 1094871.0 7553.0
559595.0 1106239.0 7420.0
559896.0 1106876.0 7242.0
560000.0 1106798.0 7395.0
560186.0 1106429.0 7419.0
560540.0 1107615.0 7420.0
560226.0 1103203.0 7343.0
560712.0 1107512.0 7255.0
560987.0 1101592.0 7311.0
561337.0 1101921.0 7375.0
561506.0 1101739.0 7255.0
561993.0 1105622.0 7361.0
561439.0 1100096.0 7367.0
561655.0 1101791.0 7315.0
562086.0 1105037.0 7305.0
562177.0 1105815.0 7340.0
561489.0 1099782.0 7425.0
562177.0 1104491.0 7284.0
562260.0 1105391.0 7380.0
562328.0 1104463.0 7310.0
562402.0 1105427.0 7433.0
561884.0 1100192.0 7429.0
562499.0 1104303.0 7244.0
563110.0 1109199.0 7239.0
562829.0 1104243.0 7298.0
563702.0 1108162.0 7331.0
562729.0 1099884.0 7295.0
563875.0 1108123.0 7400.0
563976.0 1107821.0 7425.0
563809.0 1101197.0 7354.0
563363.0 1097246.0 7378.0
563948.0 1101253.0 7412.0
564369.0 1104155.0 7431.0
564318.0 1101877.0 7252.0
564527.0 1103955.0 7412.0
564986.0 1106922.0 7306.0
564543.0 1102237.0 7244.0
564722.0 1103979.0 7346.0
564903.0 1104366.0 7316.0
564903.0 1102746.0 7272.0
565507.0 1105800.0 7276.0
565686.0 1102715.0 7372.0
564866.0 1096587.0 7379.0
565652.0 1101033.0 7265.0
565805.0 1100999.0 7255.0
566005.0 1100991.0 7300.0
566767.0 1101444.0 7269.0
568083.0 1108777.0 7281.0
565872.0 1094853.0 7239.0
566569.0 1099369.0 7342.0
565902.0 1094704.0 7283.0
566076.0 1095643.0 7411.0
566124.0 1094629.0 7346.0
566160.0 1094539.0 7380.0
569181.0 1112292.0 7264.0
569358.0 1112333.0 7389.0
567711.0 1101167.0 7257.0
567784.0 1100756.0 7246.0
569476.0 1112051.0 7430.0
567030.0 1094919.0 7262.0
569848.0 1112132.0 7430.0
568103.0 1099928.0 7292.0
569152.0 1106322.0 7336.0
569008.0 1104190.0 7243.0
569549.0 1107408.0 7313.0
569021.0 1099566.0 7317.0
569184.0 1099433.0 7256.0
569788.0 1102972.0 7246.0
569478.0 1099446.0 7329.0
571655.0 1107333.0 7353.0
570183.0 1098432.0 7381.0
571774.0 1107344.0 7279.0
570231.0 1098354.0 7372.0
570156.0 1097553.0 7399.0
570387.0 1098504.0 7336.0
571923.0 1107115.0 7348.0
571941.0 1107019.0 7421.0
570276.0 1097377.0 7374.0
571242.0 1102283.0 7274.0
572042.0 1106945.0 7360.0
570417.0 1097459.0 7306.0
570572.0 1098456.0 7373.0
571346.0 1102338.0 7283.0
572202.0 1107077.0 7281.0
572315.0 1107013.0 7377.0
571518.0 1101839.0 7402.0
571050.0 1094911.0 7332.0
571204.0 1094996.0 7424.0
572423.0 1100367.0 7403.0
573370.0 1101966.0 7424.0
573590.0 1101994.0 7431.0
573783.0 1102150.0 7282.0
573777.0 1102016.0 7428.0
573935.0 1102184.0 7402.0
574219.0 1103267.0 7319.0
574082.0 1101914.0 7389.0
574432.0 1101957.0 7334.0
574625.0 1102940.0 7304.0
574517.0 1101885.0 7385.0
574233.0 1099934.0 7304.0
574826.0 1102704.0 7407.0
574345.0 1099878.0 7419.0
575566.0 1102626.0 7242.0
571204.0 1095012.0 7397.0
571284.0 1095152.0 7347.0
570522.0 1094543.0 7388.0
571090.0 1095042.0 7246.0
574157.0 1099605.0 7361.0
574072.0 1099687.0 7384.0
570744.0 1096986.0 7355.0
570938.0 1097376.0 7297.0
567683.0 1094218.0 7282.0
570586.0 1097148.0 7268.0
571753.0 1098357.0 7317.0
570368.0 1097190.0 7434.0
575658.0 1102482.0 7377.0
569848.0 1096818.0 7414.0
570422.0 1097687.0 7406.0
572603.0 1099832.0 7428.0
570395.0 1097917.0 7433.0
572498.0 1099980.0 7338.0
566528.0 1094432.0 7369.0
567066.0 1094944.0 7336.0
570322.0 1098313.0 7328.0
566480.0 1094766.0 7258.0
566952.0 1095217.0 7324.0
565853.0 1094415.0 7388.0
566836.0 1095229.0 7247.0
566015.0 1094656.0 7242.0
573444.0 1102040.0 7368.0
573442.0 1102187.0 7248.0
574449.0 1103273.0 7394.0
572857.0 1102055.0 7335.0
569285.0 1099143.0 7274.0
569239.0 1099235.0 7332.0
569133.0 1099213.0 7277.0
569057.0 1099294.0 7277.0
566794.0 1097502.0 7398.0
568265.0 1098940.0 7437.0
573291.0 1103710.0 7265.0
565104.0 1096065.0 7293.0
570098.0 1100934.0 7427.0
564904.0 1096162.0 7342.0
571477.0 1102437.0 7298.0
573564.0 1104413.0 7307.0
564990.0 1096509.0 7434.0
570020.0 1101206.0 7239.0
571922.0 1103176.0 7414.0
566478.0 1099192.0 7241.0
570283.0 1102958.0 7391.0
567721.0 1101074.0 7282.0
569732.0 1102994.0 7420.0
567605.0 1101613.0 7367.0
566249.0 1100733.0 7388.0
572039.0 1106796.0 7304.0
565466.0 1100939.0 7385.0
571878.0 1106981.0 7410.0
568213.0 1103716.0 7307.0
571630.0 1106862.0 7272.0
568187.0 1103757.0 7240.0
569135.0 1104694.0 7370.0
571661.0 1107125.0 7432.0
568717.0 1104265.0 7268.0
569128.0 1104760.0 7365.0
571657.0 1107216.0 7386.0
571393.0 1107362.0 7424.0
568808.0 1105137.0 7310.0
560596.0 1097962.0 7253.0
571066.0 1107556.0 7427.0
565484.0 1102580.0 7403.0
563289.0 1100767.0 7360.0
563845.0 1101241.0 7346.0
564370.0 1101742.0 7373.0
562939.0 1100524.0 7420.0
563446.0 1100948.0 7309.0
563930.0 1101383.0 7308.0
564384.0 1101839.0 7326.0
562167.0 1100011.0 7425.0
564122.0 1101688.0 7282.0
564539.0 1102145.0 7287.0
566406.0 1103903.0 7334.0
561656.0 1099850.0 7435.0
564894.0 1102656.0 7367.0
569241.0 1106608.0 7241.0
561470.0 1099855.0 7323.0
569397.0 1107764.0 7277.0
565135.0 1104217.0 7292.0
568527.0 1107405.0 7372.0
564664.0 1103989.0 7357.0
568439.0 1107462.0 7330.0
564669.0 1104157.0 7312.0
568373.0 1107596.0 7427.0
564881.0 1104504.0 7252.0
568295.0 1107558.0 7252.0
561363.0 1101553.0 7275.0
561359.0 1101760.0 7318.0
565055.0 1105054.0 7348.0
565662.0 1105859.0 7292.0
570088.0 1109891.0 7430.0
562948.0 1103984.0 7270.0
568272.0 1108739.0 7249.0
562824.0 1104116.0 7253.0
561347.0 1103059.0 7263.0
562768.0 1104190.0 7240.0
561284.0 1103123.0 7260.0
561764.0 1103635.0 7333.0
562553.0 1104520.0 7435.0
565001.0 1106642.0 7383.0
560456.0 1102848.0 7384.0
562344.0 1104475.0 7335.0
560377.0 1102968.0 7337.0
560284.0 1103056.0 7350.0
562138.0 1104719.0 7364.0
562144.0 1104904.0 7396.0
562152.0 1105109.0 7378.0
569012.0 1111146.0 7366.0
560466.0 1103910.0 7420.0
569576.0 1111984.0 7437.0
562236.0 1105675.0 7381.0
569804.0 1112365.0 7427.0
561893.0 1105585.0 7255.0
569253.0 1112123.0 7356.0
560942.0 1105035.0 7275.0
569178.0 1112239.0 7276.0
563963.0 1108028.0 7422.0
563716.0 1108099.0 7358.0
559984.0 1106265.0 7422.0
560458.0 1106947.0 7411.0
560019.0 1106762.0 7238.0
560242.0 1107467.0 7328.0
563259.0 1110093.0 7330.0
560259.0 1107850.0 7434.0
575402.0 1101945.0 7350.0
574668.0 1102914.0 7422.0
573559.0 1104320.0 7319.0
573973.0 1102645.0 7277.0
573353.0 1104085.0 7380.0
573896.0 1101856.0 7435.0
574447.0 1099790.0 7392.0
572278.0 1106955.0 7319.0
573472.0 1102121.0 7278.0
572041.0 1106905.0 7356.0
573148.0 1102250.0 7281.0
571636.0 1107367.0 7277.0
571779.0 1106944.0 7409.0
572996.0 1102221.0 7432.0
571344.0 1107595.0 7416.0
571456.0 1107217.0 7396.0
571550.0 1106852.0 7314.0
572697.0 1102011.0 7332.0
569731.0 1112277.0 7373.0
569469.0 1112273.0 7388.0
572298.0 1100353.0 7416.0
572469.0 1100006.0 7433.0
569163.0 1112169.0 7330.0
571891.0 1100984.0 7371.0
571348.0 1101648.0 7312.0
568781.0 1111181.0 7357.0
570996.0 1101825.0 7337.0
570736.0 1101855.0 7369.0
568859.0 1108044.0 7354.0
569454.0 1104578.0 7369.0
569192.0 1104710.0 7416.0
567500.0 1110590.0 7339.0
567955.0 1108543.0 7414.0
568721.0 1105271.0 7347.0
569473.0 1101989.0 7256.0
569610.0 1101572.0 7407.0
570396.0 1098322.0 7424.0
570488.0 1097930.0 7429.0
570541.0 1097514.0 7273.0
571181.0 1095111.0 7318.0
569727.0 1099494.0 7377.0
570101.0 1098242.0 7425.0
570262.0 1097378.0 7296.0
569386.0 1099541.0 7343.0
570712.0 1094385.0 7239.0
567779.0 1105208.0 7433.0
569730.0 1097225.0 7434.0
567783.0 1101159.0 7243.0
568317.0 1099147.0 7271.0
567573.0 1101551.0 7393.0
567625.0 1101111.0 7264.0
568178.0 1098965.0 7379.0
566407.0 1105290.0 7304.0
566727.0 1103986.0 7430.0
567496.0 1100892.0 7268.0
566420.0 1104225.0 7409.0
566827.0 1102110.0 7272.0
565308.0 1105782.0 7386.0
566236.0 1100660.0 7367.0
566408.0 1099783.0 7330.0
564754.0 1104743.0 7268.0
564942.0 1103902.0 7242.0
565671.0 1101006.0 7357.0
567022.0 1095248.0 7413.0
563294.0 1110074.0 7303.0
563745.0 1108278.0 7421.0
562932.0 1109060.0 7283.0
564403.0 1101945.0 7288.0
566010.0 1095423.0 7418.0
566050.0 1095000.0 7271.0
566336.0 1094222.0 7302.0
565853.0 1094739.0 7379.0
565962.0 1094294.0 7425.0
564716.0 1096673.0 7419.0
564871.0 1096327.0 7366.0
562028.0 1105733.0 7313.0
562160.0 1105273.0 7401.0
562282.0 1104820.0 7370.0
563232.0 1100736.0 7418.0
561879.0 1105685.0 7386.0
562048.0 1104851.0 7427.0
562958.0 1100571.0 7374.0
561711.0 1104706.0 7401.0
563001.0 1097393.0 7250.0
560547.0 1107354.0 7285.0
561686.0 1102280.0 7412.0
561700.0 1101852.0 7273.0
562768.0 1097330.0 7253.0
561496.0 1101719.0 7269.0
562658.0 1096975.0 7322.0
559928.0 1106709.0 7336.0
561021.0 1101585.0 7299.0
560356.0 1103644.0 7381.0
560262.0 1103122.0 7327.0
560147.0 1102885.0 7431.0
563327.0 1110341.0 7344.0
563042.0 1110191.0 7366.0
563389.0 1110256.0 7260.0
563038.0 1110076.0 7387.0
569299.0 1112285.0 7374.0
563343.0 1110059.0 7260.0
569657.0 1112287.0 7317.0
569311.0 1112150.0 7277.0
563328.0 1109497.0 7296.0
559890.0 1107622.0 7365.0
560657.0 1107561.0 7354.0
561086.0 1107419.0 7382.0
563667.0 1108160.0 7418.0
559961.0 1106712.0 7314.0
563889.0 1107993.0 7311.0
565058.0 1107620.0 7369.0
565190.0 1107114.0 7418.0
564456.0 1106882.0 7349.0
561854.0 1105899.0 7307.0
561584.0 1105797.0 7289.0
565212.0 1106908.0 7422.0
561967.0 1105642.0 7366.0
568986.0 1108123.0 7352.0
568672.0 1107930.0 7435.0
562141.0 1105471.0 7348.0
568402.0 1107615.0 7403.0
562368.0 1105031.0 7427.0
561997.0 1104944.0 7291.0
566887.0 1106498.0 7393.0
562227.0 1104773.0 7250.0
561914.0 1104606.0 7314.0
571516.0 1107941.0 7242.0
562433.0 1104490.0 7370.0
560264.0 1103628.0 7303.0
571440.0 1107592.0 7285.0
569594.0 1106885.0 7359.0
562773.0 1104273.0 7332.0
560280.0 1103297.0 7344.0
571740.0 1107313.0 7247.0
569491.0 1106502.0 7363.0
572153.0 1107010.0 7335.0
571825.0 1106956.0 7357.0
568625.0 1105431.0 7289.0
567563.0 1105072.0 7348.0
568743.0 1105295.0 7257.0
561723.0 1102304.0 7403.0
569004.0 1104877.0 7302.0
561804.0 1102138.0 7288.0
561437.0 1101965.0 7387.0
569326.0 1104634.0 7406.0
564708.0 1102880.0 7368.0
560954.0 1101501.0 7291.0
568279.0 1103879.0 7306.0
564483.0 1102231.0 7298.0
563791.0 1101308.0 7361.0
569379.0 1103187.0 7256.0
563893.0 1101222.0 7372.0
563584.0 1101001.0 7423.0
561431.0 1100150.0 7363.0
573494.0 1104413.0 7413.0
571626.0 1103790.0 7406.0
568934.0 1102791.0 7422.0
563197.0 1100664.0 7418.0
560558.0 1099618.0 7313.0
571853.0 1103636.0 7347.0
563056.0 1100366.0 7386.0
570333.0 1102838.0 7338.0
566752.0 1101512.0 7384.0
565670.0 1101112.0 7308.0
569667.0 1102243.0 7295.0
571152.0 1102436.0 7390.0
567840.0 1101297.0 7315.0
569688.0 1101633.0 7258.0
571361.0 1101880.0 7340.0
570978.0 1101765.0 7248.0
572418.0 1101983.0 7271.0
572021.0 1101922.0 7245.0
571643.0 1101735.0 7245.0
575012.0 1102628.0 7266.0
571419.0 1101367.0 7261.0
570316.0 1100933.0 7388.0
568105.0 1099826.0 7242.0
563097.0 1097539.0 7328.0
569291.0 1099553.0 7355.0
562840.0 1097227.0 7238.0
572240.0 1100347.0 7261.0
569601.0 1099396.0 7289.0
569215.0 1099318.0 7259.0
572366.0 1100124.0 7289.0
570238.0 1098441.0 7429.0
564716.0 1096478.0 7402.0
564948.0 1096260.0 7238.0
570488.0 1097897.0 7391.0
570870.0 1097843.0 7269.0
570554.0 1097697.0 7325.0
570218.0 1097545.0 7395.0
570530.0 1097501.0 7256.0
570180.0 1097342.0 7357.0
566275.0 1095153.0 7355.0
565633.0 1094896.0 7430.0
567123.0 1095153.0 7348.0
566781.0 1095072.0 7326.0
566033.0 1094812.0 7238.0
566112.0 1094307.0 7391.0
571301.0 1094829.0 7430.0
560434.0 1107296.0 7134.0
560588.0 1103544.0 7190.0
560846.0 1105373.0 7089.0
561486.0 1103947.0 7218.0
561758.0 1105555.0 7058.0
561666.0 1103783.0 7152.0
561885.0 1105620.0 7155.0
561726.0 1103737.0 7232.0
561916.0 1104655.0 7179.0
562044.0 1104227.0 7170.0
563278.0 1109949.0 7099.0
562618.0 1104239.0 7224.0
563611.0 1109916.0 7043.0
562827.0 1097430.0 7139.0
562811.0 1096969.0 7089.0
565007.0 1109580.0 7062.0
564915.0 1105948.0 7201.0
564735.0 1102406.0 7218.0
565240.0 1106289.0 7201.0
565279.0 1104051.0 7181.0
565575.0 1103968.0 7103.0
565864.0 1105966.0 7081.0
565471.0 1102656.0 7159.0
565885.0 1103786.0 7231.0
566856.0 1106253.0 7189.0
566453.0 1099259.0 7208.0
567277.0 1104614.0 7228.0
567458.0 1104794.0 7104.0
567493.0 1104822.0 7143.0
566619.0 1098441.0 7069.0
565812.0 1093137.0 7130.0
566742.0 1098589.0 7142.0
565950.0 1093381.0 7232.0
569041.0 1111986.0 7166.0
567577.0 1101482.0 7188.0
567983.0 1103612.0 7045.0
568159.0 1103900.0 7097.0
568769.0 1108189.0 7232.0
568209.0 1103864.0 7234.0
568304.0 1103887.0 7221.0
568662.0 1105969.0 7077.0
569006.0 1108030.0 7118.0
568700.0 1105042.0 7081.0
568401.0 1102371.0 7147.0
568764.0 1105106.0 7156.0
566886.0 1093188.0 7205.0
567160.0 1094354.0 7055.0
568873.0 1104221.0 7149.0
568287.0 1099559.0 7058.0
567501.0 1094084.0 7146.0
570167.0 1109723.0 7110.0
569256.0 1102457.0 7123.0
571332.0 1107979.0 7130.0
571469.0 1107757.0 7178.0
570946.0 1098086.0 7129.0
570934.0 1097354.0 7198.0
571096.0 1098359.0 7168.0
571235.0 1097960.0 7059.0
571477.0 1098401.0 7099.0
571965.0 1100942.0 7187.0
572551.0 1102139.0 7128.0
572358.0 1100210.0 7217.0
573171.0 1102498.0 7059.0
573598.0 1103954.0 7153.0
573418.0 1102319.0 7127.0
573668.0 1102251.0 7115.0
574372.0 1103072.0 7203.0
574519.0 1102808.0 7173.0
574227.0 1100226.0 7089.0
574669.0 1102704.0 7219.0
574713.0 1101991.0 7162.0
574401.0 1100220.0 7189.0
570448.0 1094058.0 7179.0
571008.0 1094577.0 7080.0
570200.0 1093995.0 7040.0
570042.0 1094070.0 7062.0
574309.0 1100082.0 7232.0
574046.0 1099914.0 7191.0
574147.0 1100169.0 7051.0
571372.0 1097558.0 7205.0
573888.0 1099995.0 7044.0
566717.0 1093154.0 7089.0
570834.0 1097275.0 7219.0
571340.0 1097777.0 7136.0
567601.0 1094168.0 7220.0
571179.0 1097690.0 7120.0
567564.0 1094192.0 7215.0
570781.0 1097353.0 7223.0
571336.0 1097883.0 7114.0
570963.0 1097663.0 7185.0
567446.0 1094372.0 7232.0
570482.0 1097343.0 7233.0
567290.0 1094445.0 7187.0
574822.0 1101922.0 7154.0
565844.0 1093293.0 7097.0
570996.0 1098349.0 7158.0
571139.0 1098734.0 7102.0
566911.0 1094924.0 7157.0
574431.0 1102739.0 7161.0
573230.0 1102188.0 7220.0
574258.0 1103214.0 7218.0
573475.0 1102583.0 7122.0
572654.0 1102053.0 7211.0
574252.0 1103585.0 7110.0
572649.0 1102172.0 7112.0
573140.0 1102616.0 7081.0
574136.0 1103648.0 7105.0
571534.0 1101305.0 7217.0
572401.0 1102194.0 7071.0
566176.0 1096274.0 7079.0
571389.0 1101458.0 7085.0
566787.0 1097641.0 7217.0
568452.0 1099394.0 7074.0
574630.0 1105456.0 7142.0
568043.0 1099255.0 7136.0
574538.0 1105548.0 7070.0
570053.0 1101407.0 7155.0
566746.0 1098449.0 7149.0
566598.0 1098458.0 7081.0
568035.0 1099865.0 7160.0
570026.0 1101808.0 7209.0
566699.0 1098803.0 7171.0
569551.0 1101847.0 7217.0
569432.0 1101969.0 7192.0
569417.0 1102184.0 7181.0
569257.0 1102135.0 7157.0
567722.0 1100837.0 7190.0
569238.0 1102232.0 7124.0
569931.0 1103273.0 7094.0
562719.0 1096960.0 7101.0
562972.0 1097545.0 7109.0
568933.0 1104097.0 7109.0
565584.0 1101090.0 7119.0
568824.0 1104173.0 7171.0
565861.0 1101492.0 7041.0
568218.0 1103823.0 7213.0
568941.0 1104582.0 7219.0
568801.0 1104562.0 7129.0
571827.0 1107428.0 7155.0
568950.0 1104981.0 7223.0
571626.0 1107690.0 7119.0
571430.0 1107926.0 7066.0
565557.0 1102653.0 7059.0
565852.0 1103156.0 7237.0
568847.0 1106080.0 7220.0
564441.0 1102134.0 7174.0
564928.0 1102831.0 7188.0
565908.0 1103789.0 7164.0
569390.0 1106931.0 7160.0
568414.0 1106250.0 7125.0
565525.0 1103864.0 7122.0
560459.0 1099539.0 7154.0
565144.0 1103825.0 7213.0
565344.0 1104111.0 7142.0
569003.0 1107808.0 7114.0
568954.0 1108014.0 7149.0
570026.0 1108933.0 7078.0
566857.0 1106234.0 7163.0
568815.0 1108062.0 7231.0
569552.0 1108777.0 7093.0
570170.0 1110127.0 7076.0
565204.0 1106142.0 7142.0
564744.0 1105907.0 7105.0
561155.0 1103151.0 7122.0
560985.0 1103176.0 7089.0
561940.0 1104284.0 7210.0
560679.0 1103690.0 7106.0
561700.0 1104558.0 7056.0
561922.0 1105037.0 7146.0
561354.0 1104832.0 7231.0
561838.0 1105182.0 7038.0
561918.0 1105868.0 7181.0
560830.0 1105113.0 7077.0
561564.0 1105930.0 7118.0
562014.0 1106368.0 7085.0
561626.0 1106289.0 7049.0
564302.0 1108745.0 7199.0
564457.0 1109138.0 7144.0
564464.0 1109260.0 7079.0
560164.0 1107129.0 7058.0
560606.0 1107482.0 7093.0
563384.0 1109848.0 7048.0
563489.0 1110348.0 7087.0
563206.0 1110302.0 7056.0
575647.0 1102693.0 7174.0
575383.0 1102676.0 7200.0
574422.0 1103276.0 7236.0
574108.0 1103079.0 7047.0
574345.0 1102276.0 7136.0
574137.0 1101784.0 7153.0
573215.0 1102899.0 7146.0
571728.0 1107695.0 7064.0
571872.0 1107289.0 7177.0
571393.0 1108219.0 7079.0
571516.0 1107790.0 7208.0
570576.0 1110439.0 7058.0
570380.0 1110161.0 7043.0
572076.0 1103320.0 7215.0
572396.0 1102068.0 7216.0
569862.0 1110163.0 7134.0
569655.0 1109528.0 7044.0
571380.0 1101193.0 7039.0
570995.0 1101382.0 7089.0
571475.0 1098474.0 7072.0
571640.0 1098078.0 7208.0
570128.0 1102999.0 7175.0
571170.0 1098716.0 7107.0
569895.0 1103103.0 7088.0
571005.0 1098671.0 7058.0
571296.0 1097530.0 7101.0
570794.0 1098495.0 7066.0
571009.0 1097686.0 7113.0
568439.0 1107332.0 7196.0
569647.0 1102015.0 7077.0
570773.0 1097668.0 7219.0
570826.0 1097214.0 7059.0
568337.0 1106434.0 7062.0
568715.0 1104806.0 7111.0
568803.0 1104391.0 7139.0
568958.0 1102486.0 7097.0
570882.0 1094469.0 7042.0
568244.0 1103884.0 7141.0
568105.0 1103603.0 7160.0
568646.0 1099589.0 7061.0
566861.0 1106135.0 7102.0
568389.0 1099539.0 7050.0
566672.0 1106160.0 7206.0
566698.0 1105687.0 7075.0
568025.0 1099373.0 7088.0
564999.0 1110010.0 7087.0
566229.0 1104607.0 7062.0
566907.0 1101765.0 7177.0
565668.0 1105794.0 7133.0
564423.0 1109112.0 7101.0
565713.0 1103773.0 7230.0
566541.0 1099575.0 7165.0
566758.0 1098816.0 7107.0
566034.0 1101056.0 7143.0
566644.0 1098920.0 7212.0
566649.0 1098454.0 7065.0
564618.0 1106723.0 7124.0
564830.0 1105782.0 7129.0
565187.0 1104030.0 7170.0
565723.0 1101327.0 7119.0
565921.0 1100925.0 7187.0
567509.0 1094382.0 7175.0
563499.0 1110216.0 7104.0
565531.0 1101416.0 7224.0
566989.0 1094780.0 7091.0
564865.0 1102541.0 7047.0
566832.0 1094325.0 7051.0
565906.0 1096690.0 7074.0
565669.0 1093747.0 7045.0
562917.0 1104064.0 7200.0
562767.0 1104018.0 7214.0
563192.0 1100336.0 7196.0
562058.0 1104401.0 7229.0
564202.0 1094858.0 7046.0
562791.0 1096997.0 7135.0
560098.0 1107873.0 7136.0
560073.0 1106958.0 7084.0
560436.0 1105076.0 7052.0
561273.0 1101478.0 7188.0
561583.0 1100138.0 7225.0
560526.0 1103716.0 7179.0
560574.0 1103293.0 7098.0
561331.0 1099894.0 7124.0
560424.0 1103141.0 7219.0
560807.0 1099120.0 7096.0
560532.0 1098185.0 7074.0
562886.0 1110441.0 7069.0
563642.0 1110209.0 7140.0
568935.0 1111998.0 7163.0
564894.0 1110107.0 7181.0
567537.0 1110749.0 7188.0
564950.0 1109787.0 7175.0
561413.0 1107580.0 7227.0
560243.0 1107167.0 7218.0
559930.0 1107057.0 7196.0
570264.0 1110288.0 7102.0
561535.0 1106717.0 7038.0
560467.0 1105335.0 7200.0
564459.0 1106745.0 7107.0
569132.0 1107993.0 7081.0
561421.0 1104944.0 7138.0
565292.0 1106293.0 7066.0
566864.0 1106241.0 7187.0
562045.0 1104405.0 7180.0
560609.0 1103839.0 7188.0
562008.0 1104094.0 7042.0
561670.0 1103944.0 7134.0
561975.0 1103657.0 7084.0
560479.0 1103048.0 7210.0
569209.0 1106143.0 7049.0
564901.0 1104381.0 7220.0
567220.0 1104995.0 7051.0
565027.0 1104136.0 7218.0
565345.0 1104039.0 7128.0
568723.0 1105057.0 7221.0
565769.0 1103980.0 7081.0
568628.0 1104825.0 7049.0
565736.0 1103760.0 7087.0
568866.0 1104593.0 7144.0
561688.0 1101824.0 7177.0
561329.0 1101648.0 7216.0
564936.0 1102709.0 7136.0
570458.0 1104476.0 7218.0
564799.0 1102463.0 7085.0
574563.0 1105630.0 7076.0
574581.0 1105460.0 7084.0
564063.0 1101558.0 7201.0
572578.0 1104406.0 7159.0
570072.0 1103508.0 7210.0
566781.0 1102266.0 7226.0
569677.0 1103138.0 7170.0
570009.0 1103008.0 7204.0
568895.0 1102621.0 7161.0
565631.0 1101439.0 7082.0
563406.0 1100564.0 7201.0
560485.0 1099427.0 7129.0
572094.0 1103507.0 7190.0
571537.0 1102966.0 7188.0
565919.0 1100951.0 7168.0
570004.0 1102186.0 7086.0
569663.0 1102010.0 7083.0
567516.0 1101192.0 7195.0
574316.0 1103267.0 7228.0
567579.0 1100873.0 7225.0
574282.0 1103062.0 7062.0
573201.0 1102535.0 7219.0
574505.0 1102831.0 7076.0
573826.0 1102557.0 7109.0
573480.0 1102356.0 7207.0
571315.0 1101644.0 7122.0
575316.0 1102733.0 7195.0
573909.0 1102289.0 7121.0
573550.0 1102133.0 7234.0
566382.0 1099542.0 7232.0
574134.0 1101975.0 7235.0
566582.0 1099286.0 7214.0
574620.0 1101905.0 7103.0
568511.0 1099655.0 7142.0
566641.0 1099009.0 7135.0
568911.0 1099514.0 7153.0
568526.0 1099472.0 7043.0
568182.0 1099241.0 7203.0
566778.0 1098760.0 7089.0
563185.0 1097438.0 7046.0
566626.0 1098398.0 7063.0
562864.0 1096991.0 7064.0
566757.0 1097698.0 7096.0
571424.0 1098675.0 7049.0
571527.0 1098403.0 7077.0
565193.0 1096036.0 7212.0
571533.0 1097924.0 7132.0
571195.0 1097835.0 7040.0
570868.0 1097652.0 7182.0
571438.0 1097641.0 7094.0
571056.0 1097522.0 7088.0
570699.0 1097376.0 7159.0
570375.0 1097248.0 7084.0
565898.0 1095641.0 7146.0
571454.0 1097377.0 7132.0
570762.0 1097111.0 7175.0
565929.0 1095074.0 7228.0
566966.0 1094920.0 7192.0
566266.0 1094655.0 7219.0
567143.0 1094736.0 7119.0
567290.0 1094516.0 7118.0
565555.0 1093595.0 7092.0
559344.0 1107144.0 6877.0
559829.0 1107088.0 6995.0
559835.0 1105110.0 6866.0
559966.0 1105290.0 6968.0
560102.0 1105287.0 7035.0
560738.0 1105183.0 6909.0
561020.0 1107824.0 6971.0
561802.0 1104700.0 7015.0
563090.0 1109259.0 6850.0
563174.0 1110166.0 7036.0
563434.0 1109752.0 6931.0
562107.0 1098766.0 6957.0
563543.0 1109551.0 6888.0
563586.0 1110482.0 6971.0
563598.0 1109159.0 6944.0
563818.0 1109260.0 6869.0
563986.0 1109112.0 6882.0
564151.0 1108914.0 6916.0
562706.0 1097247.0 6981.0
564281.0 1108772.0 7023.0
562771.0 1096322.0 6892.0
564493.0 1109392.0 7026.0
563103.0 1097375.0 6978.0
563174.0 1097327.0 6974.0
565019.0 1104784.0 6928.0
565884.0 1110071.0 6928.0
565304.0 1104840.0 7007.0
565426.0 1104879.0 6966.0
565456.0 1101198.0 6956.0
565765.0 1103213.0 6864.0
564892.0 1094657.0 6933.0
566748.0 1105993.0 6976.0
567796.0 1110340.0 6852.0
565986.0 1097170.0 6934.0
566131.0 1097016.0 6923.0
565633.0 1093318.0 6871.0
566239.0 1097003.0 6900.0
565632.0 1093218.0 6933.0
566191.0 1096460.0 7017.0
566404.0 1097502.0 6873.0
566386.0 1097118.0 6863.0
566544.0 1098253.0 6974.0
567995.0 1106920.0 6865.0
565852.0 1093700.0 7000.0
566353.0 1096570.0 6940.0
566549.0 1097497.0 6879.0
568143.0 1107330.0 6877.0
566644.0 1097499.0 6908.0
567401.0 1101744.0 6904.0
568797.0 1110824.0 6854.0
568938.0 1111803.0 6951.0
567408.0 1101367.0 7008.0
567002.0 1098207.0 6957.0
567926.0 1103650.0 6927.0
568464.0 1107195.0 7031.0
569250.0 1111577.0 6939.0
566614.0 1094895.0 6990.0
568671.0 1107130.0 6998.0
568471.0 1104783.0 6872.0
568576.0 1104913.0 6963.0
568945.0 1106989.0 6838.0
566903.0 1094739.0 7012.0
567803.0 1099421.0 6961.0
569242.0 1108254.0 6984.0
569204.0 1106884.0 6961.0
569378.0 1107777.0 6904.0
569490.0 1108663.0 7028.0
569676.0 1109541.0 6841.0
569639.0 1108330.0 6877.0
569798.0 1109339.0 6916.0
570006.0 1109538.0 6944.0
570139.0 1108822.0 6980.0
569983.0 1104297.0 7013.0
570372.0 1103897.0 7036.0
572690.0 1108060.0 6849.0
570394.0 1094288.0 6895.0
570518.0 1094313.0 7008.0
570735.0 1094550.0 6950.0
570938.0 1094775.0 7020.0
571766.0 1098850.0 6991.0
572550.0 1102844.0 7005.0
573007.0 1102392.0 7020.0
574005.0 1104287.0 6939.0
574146.0 1103910.0 6972.0
574395.0 1104481.0 6866.0
573718.0 1100692.0 6867.0
573720.0 1100152.0 6895.0
573960.0 1100621.0 7006.0
574036.0 1100190.0 7005.0
574808.0 1101427.0 6851.0
570760.0 1094549.0 7033.0
573699.0 1099611.0 6930.0
572655.0 1098684.0 6838.0
573790.0 1100027.0 6955.0
575393.0 1101754.0 7023.0
575668.0 1101959.0 6904.0
573679.0 1100087.0 6898.0
574289.0 1100703.0 6891.0
573576.0 1100008.0 6859.0
574088.0 1100570.0 6914.0
573670.0 1100216.0 6881.0
566383.0 1093200.0 6892.0
571113.0 1097864.0 7028.0
574776.0 1101496.0 6899.0
566335.0 1093371.0 6880.0
571152.0 1098063.0 6894.0
573812.0 1100816.0 7009.0
566940.0 1094286.0 6901.0
565665.0 1093356.0 6936.0
565902.0 1093788.0 6913.0
573976.0 1102188.0 6948.0
566262.0 1094942.0 6941.0
575602.0 1104219.0 6974.0
565798.0 1094773.0 6960.0
575327.0 1104184.0 6945.0
574098.0 1103113.0 6881.0
575273.0 1104289.0 6893.0
573218.0 1102513.0 7029.0
574721.0 1104103.0 6842.0
572809.0 1102404.0 6839.0
566280.0 1096168.0 6952.0
571390.0 1101182.0 7033.0
573988.0 1103727.0 6978.0
574244.0 1104061.0 6924.0
566311.0 1096517.0 6976.0
574315.0 1104253.0 6879.0
572642.0 1102742.0 6957.0
573648.0 1103852.0 6997.0
574224.0 1104279.0 6841.0
574739.0 1104817.0 6883.0
573853.0 1104102.0 6892.0
566320.0 1097034.0 6879.0
571928.0 1102415.0 6847.0
572463.0 1102972.0 6849.0
566003.0 1096968.0 6953.0
566523.0 1097422.0 6873.0
566603.0 1097785.0 6899.0
566720.0 1098149.0 7008.0
567899.0 1099193.0 6906.0
566323.0 1097942.0 6941.0
567840.0 1099389.0 7022.0
567903.0 1099803.0 6881.0
569757.0 1102567.0 6850.0
562912.0 1096235.0 6853.0
562734.0 1096176.0 6906.0
562836.0 1096313.0 6843.0
569305.0 1102435.0 6961.0
569700.0 1103040.0 6973.0
563184.0 1097414.0 7022.0
567370.0 1101520.0 6959.0
568346.0 1102451.0 6939.0
572257.0 1107293.0 6917.0
572788.0 1107969.0 6988.0
566311.0 1101969.0 7000.0
572174.0 1107424.0 6894.0
572694.0 1107894.0 6855.0
566277.0 1101971.0 6976.0
567860.0 1103614.0 6891.0
568565.0 1104477.0 6948.0
571648.0 1107909.0 6999.0
571508.0 1108150.0 6981.0
560593.0 1098233.0 6897.0
565423.0 1102679.0 7031.0
571423.0 1108171.0 7001.0
560451.0 1098237.0 6977.0
565616.0 1102882.0 6875.0
562813.0 1100654.0 6955.0
567117.0 1104513.0 6985.0
568426.0 1105953.0 6928.0
568919.0 1106419.0 6980.0
560771.0 1099351.0 7012.0
569412.0 1107135.0 6917.0
560763.0 1099514.0 7003.0
569378.0 1107275.0 6858.0
565789.0 1104108.0 6907.0
570466.0 1108591.0 6970.0
568615.0 1107018.0 6922.0
569204.0 1107660.0 6911.0
566845.0 1105986.0 6972.0
565404.0 1104866.0 6984.0
569395.0 1108443.0 6965.0
569889.0 1108912.0 7005.0
568131.0 1107426.0 6900.0
569068.0 1108311.0 6941.0
570064.0 1109159.0 6842.0
569449.0 1108848.0 6966.0
569981.0 1109348.0 6925.0
569688.0 1109306.0 6919.0
570612.0 1110272.0 6983.0
569752.0 1109646.0 6879.0
570696.0 1110508.0 6864.0
569945.0 1110143.0 7019.0
564817.0 1105699.0 6984.0
562364.0 1103774.0 6896.0
561932.0 1103920.0 7034.0
560991.0 1103338.0 6940.0
560850.0 1103387.0 6943.0
560844.0 1103541.0 6868.0
564973.0 1107211.0 6993.0
568729.0 1110590.0 6986.0
564846.0 1107237.0 6867.0
568559.0 1110528.0 6852.0
568976.0 1111359.0 6843.0
561418.0 1105052.0 6981.0
565633.0 1108709.0 6991.0
567741.0 1110558.0 6949.0
568814.0 1112012.0 6873.0
560554.0 1105046.0 6944.0
564238.0 1108760.0 7014.0
565813.0 1110027.0 6867.0
559799.0 1105073.0 6935.0
559876.0 1105276.0 6895.0
561690.0 1106847.0 6962.0
564275.0 1109252.0 7020.0
564154.0 1109287.0 6919.0
563814.0 1109187.0 6853.0
563150.0 1109026.0 6999.0
563672.0 1109364.0 6866.0
561060.0 1107442.0 6870.0
559947.0 1107348.0 6855.0
562982.0 1110346.0 7006.0
574383.0 1105452.0 6998.0
574611.0 1104282.0 6844.0
574354.0 1104331.0 6883.0
574141.0 1104113.0 6963.0
574248.0 1103670.0 6958.0
573848.0 1103893.0 6859.0
574376.0 1101834.0 6945.0
573996.0 1102219.0 7037.0
573642.0 1102301.0 6990.0
571833.0 1108129.0 6844.0
572075.0 1107358.0 6970.0
571612.0 1108122.0 6996.0
573750.0 1099768.0 7020.0
572626.0 1102650.0 6856.0
572434.0 1102774.0 6955.0
572521.0 1102334.0 7002.0
570141.0 1109996.0 7020.0
569904.0 1109730.0 6978.0
569959.0 1109298.0 6863.0
571793.0 1101599.0 6881.0
569084.0 1111739.0 6907.0
569714.0 1109074.0 6913.0
572231.0 1098787.0 7020.0
569302.0 1108251.0 6952.0
569346.0 1107833.0 6838.0
569482.0 1107414.0 6915.0
570317.0 1104212.0 6968.0
569151.0 1107799.0 6995.0
571344.0 1098867.0 7004.0
571248.0 1098293.0 6999.0
571320.0 1097890.0 6933.0
571041.0 1098312.0 6977.0
571126.0 1097916.0 6959.0
568654.0 1107106.0 6912.0
568886.0 1106206.0 6864.0
569573.0 1103210.0 6913.0
570025.0 1101502.0 6966.0
571071.0 1097252.0 6983.0
567666.0 1108892.0 6915.0
569212.0 1102340.0 6874.0
567162.0 1109805.0 6854.0
568236.0 1102333.0 6846.0
568004.0 1102165.0 6984.0
567112.0 1104781.0 6929.0
568138.0 1099550.0 6915.0
567876.0 1099848.0 6994.0
565144.0 1110190.0 6840.0
567121.0 1101744.0 6921.0
566809.0 1098410.0 6985.0
566869.0 1098019.0 6918.0
564273.0 1108949.0 7016.0
566716.0 1098016.0 6962.0
564024.0 1108947.0 6876.0
564869.0 1105314.0 6999.0
564888.0 1104882.0 6847.0
565262.0 1103091.0 6853.0
566556.0 1097811.0 6972.0
563552.0 1109803.0 6975.0
565038.0 1103028.0 6921.0
565087.0 1102640.0 6839.0
566305.0 1097682.0 6988.0
567079.0 1094385.0 6976.0
563122.0 1110496.0 6970.0
563396.0 1109165.0 7013.0
566123.0 1096860.0 6861.0
566247.0 1096430.0 6920.0
566305.0 1096006.0 6864.0
566711.0 1094712.0 7005.0
563021.0 1109179.0 6913.0
566698.0 1093221.0 6967.0
562676.0 1109408.0 6984.0
566299.0 1093381.0 6854.0
565663.0 1095095.0 7037.0
565996.0 1093388.0 6916.0
565783.0 1093354.0 7035.0
562398.0 1103900.0 7012.0
561178.0 1107695.0 6844.0
561703.0 1105209.0 6941.0
562008.0 1103893.0 6924.0
560981.0 1107390.0 6957.0
561519.0 1105139.0 6997.0
563224.0 1097253.0 7027.0
560677.0 1107260.0 6866.0
560344.0 1107664.0 6940.0
560110.0 1107440.0 6855.0
560229.0 1107040.0 6972.0
560607.0 1105237.0 6952.0
560708.0 1103726.0 6992.0
560803.0 1103289.0 6964.0
559609.0 1107514.0 6839.0
559219.0 1107202.0 6842.0
560915.0 1099513.0 6999.0
559220.0 1106211.0 6900.0
560727.0 1099474.0 6993.0
563495.0 1109978.0 6990.0
569413.0 1111938.0 7023.0
569040.0 1111794.0 6991.0
563664.0 1109736.0 6943.0
563468.0 1109278.0 6888.0
567427.0 1110401.0 6937.0
558771.0 1106995.0 6861.0
561007.0 1107550.0 6904.0
560628.0 1107403.0 6872.0
558705.0 1106676.0 6857.0
570620.0 1110461.0 7010.0
570406.0 1110130.0 7027.0
570064.0 1109999.0 7006.0
570079.0 1109736.0 6945.0
569747.0 1109597.0 6959.0
561413.0 1106392.0 6911.0
570007.0 1109458.0 6881.0
569636.0 1109272.0 6998.0
569283.0 1109082.0 6983.0
570164.0 1109265.0 6841.0
569851.0 1109128.0 6885.0
569496.0 1108948.0 7003.0
569816.0 1108830.0 6913.0
569489.0 1108694.0 6946.0
564746.0 1106847.0 7006.0
560815.0 1105403.0 6881.0
560468.0 1105224.0 6970.0
569346.0 1108381.0 6945.0
561693.0 1105503.0 6904.0
561664.0 1105235.0 6908.0
569272.0 1107856.0 6888.0
568193.0 1107440.0 6939.0
561569.0 1104905.0 7008.0
571373.0 1108283.0 7021.0
568352.0 1107211.0 6956.0
568595.0 1107028.0 6892.0
565680.0 1105939.0 6966.0
564948.0 1105664.0 6845.0
571742.0 1107782.0 7025.0
569214.0 1106881.0 6960.0
567033.0 1106076.0 6991.0
566749.0 1105893.0 6998.0
560624.0 1103560.0 6963.0
572419.0 1107677.0 6843.0
568332.0 1106160.0 6945.0
562294.0 1103872.0 6865.0
560836.0 1103305.0 6949.0
567777.0 1105581.0 6985.0
567244.0 1104793.0 6954.0
565413.0 1103870.0 7018.0
574158.0 1105575.0 6864.0
572659.0 1104373.0 6941.0
566224.0 1101926.0 6979.0
568511.0 1102556.0 6861.0
568177.0 1102405.0 6907.0
567435.0 1102152.0 6872.0
567082.0 1101747.0 7006.0
560593.0 1099291.0 6938.0
575187.0 1104389.0 6838.0
574462.0 1104130.0 6871.0
574092.0 1104009.0 6873.0
569233.0 1102310.0 6864.0
574254.0 1103768.0 6900.0
572525.0 1102753.0 6932.0
572824.0 1102549.0 6962.0
573089.0 1102414.0 6984.0
572723.0 1102258.0 7034.0
574839.0 1102339.0 6991.0
571437.0 1101174.0 6848.0
568103.0 1099608.0 6949.0
567807.0 1099507.0 6960.0
563227.0 1097185.0 6924.0
573766.0 1100736.0 6890.0
566929.0 1098313.0 6907.0
566588.0 1098142.0 7025.0
566852.0 1098032.0 6915.0
566514.0 1097880.0 6955.0
566376.0 1097590.0 6921.0
573815.0 1099899.0 6933.0
566486.0 1097324.0 6840.0
571758.0 1098872.0 6895.0
571073.0 1098567.0 6990.0
566020.0 1096801.0 6902.0
571149.0 1098330.0 6923.0
566271.0 1096597.0 6847.0
571243.0 1098038.0 7015.0
566211.0 1096298.0 6894.0
571106.0 1097321.0 6933.0
564263.0 1094842.0 6940.0
565177.0 1094915.0 6979.0
566922.0 1094470.0 6902.0
567239.0 1094249.0 6984.0
565839.0 1093410.0 6939.0
566835.0 1093385.0 6987.0
570981.0 1094632.0 6864.0
570348.0 1094093.0 6906.0
558817.0 1106916.0 6749.0
559145.0 1106972.0 6727.0
559504.0 1106064.0 6712.0
559779.0 1107382.0 6784.0
560035.0 1107878.0 6763.0
560166.0 1107723.0 6750.0
560295.0 1107509.0 6711.0
561195.0 1107268.0 6769.0
560976.0 1103730.0 6691.0
561611.0 1105466.0 6816.0
560910.0 1098201.0 6769.0
561946.0 1106321.0 6770.0
562729.0 1107213.0 6774.0
562324.0 1100398.0 6648.0
563200.0 1107028.0 6664.0
562500.0 1100734.0 6674.0
562871.0 1103769.0 6708.0
563006.0 1096347.0 6783.0
564608.0 1107116.0 6693.0
563082.0 1096251.0 6762.0
565324.0 1110319.0 6642.0
563393.0 1096185.0 6775.0
565418.0 1109791.0 6778.0
565583.0 1109867.0 6725.0
565159.0 1105604.0 6783.0
565509.0 1105842.0 6739.0
566237.0 1104773.0 6686.0
564773.0 1094705.0 6819.0
565960.0 1101907.0 6658.0
566126.0 1101988.0 6834.0
567314.0 1109911.0 6781.0
567655.0 1110286.0 6660.0
567886.0 1112237.0 6714.0
568096.0 1112057.0 6736.0
567409.0 1105337.0 6662.0
565652.0 1093659.0 6677.0
568030.0 1108711.0 6819.0
568177.0 1109761.0 6802.0
567788.0 1105888.0 6652.0
567892.0 1106744.0 6733.0
567992.0 1107589.0 6708.0
568650.0 1111824.0 6673.0
567143.0 1101714.0 6770.0
567807.0 1105760.0 6690.0
567937.0 1106755.0 6821.0
568672.0 1111676.0 6694.0
565809.0 1093683.0 6773.0
568787.0 1111994.0 6749.0
568034.0 1106466.0 6791.0
568704.0 1110775.0 6746.0
568812.0 1111669.0 6803.0
569257.0 1113704.0 6755.0
566740.0 1096887.0 6764.0
566240.0 1093529.0 6835.0
566427.0 1093903.0 6711.0
566616.0 1095027.0 6759.0
568296.0 1104600.0 6703.0
566487.0 1093715.0 6754.0
566743.0 1094605.0 6711.0
569153.0 1107163.0 6782.0
569469.0 1107350.0 6802.0
569144.0 1102523.0 6832.0
570335.0 1104361.0 6773.0
571931.0 1108322.0 6651.0
571916.0 1108069.0 6827.0
572060.0 1108197.0 6678.0
572154.0 1107737.0 6768.0
572343.0 1108008.0 6660.0
572509.0 1108043.0 6669.0
572546.0 1107995.0 6794.0
570238.0 1094269.0 6781.0
572306.0 1102600.0 6644.0
573271.0 1103841.0 6663.0
572573.0 1098885.0 6667.0
573175.0 1100259.0 6654.0
574169.0 1105196.0 6679.0
573861.0 1103127.0 6688.0
574328.0 1105448.0 6743.0
573544.0 1100934.0 6681.0
573423.0 1099921.0 6801.0
574006.0 1102900.0 6764.0
574495.0 1104516.0 6821.0
574575.0 1104198.0 6837.0
574728.0 1104242.0 6827.0
574617.0 1101423.0 6785.0
574196.0 1099160.0 6683.0
575225.0 1104372.0 6835.0
570676.0 1094664.0 6786.0
570490.0 1094645.0 6657.0
575835.0 1101783.0 6762.0
575116.0 1101233.0 6795.0
575752.0 1101835.0 6812.0
572447.0 1098726.0 6824.0
573544.0 1099808.0 6766.0
572547.0 1098802.0 6655.0
574909.0 1101311.0 6807.0
572605.0 1099077.0 6749.0
574752.0 1101309.0 6829.0
573553.0 1100241.0 6819.0
573311.0 1100201.0 6764.0
573171.0 1100311.0 6655.0
566219.0 1093791.0 6735.0
571709.0 1099179.0 6753.0
573670.0 1101154.0 6723.0
573387.0 1101054.0 6672.0
565606.0 1093645.0 6643.0
566119.0 1094098.0 6645.0
571477.0 1099935.0 6642.0
572352.0 1101020.0 6646.0
565677.0 1094751.0 6725.0
573631.0 1102527.0 6668.0
573812.0 1102945.0 6657.0
565313.0 1094820.0 6691.0
573770.0 1103052.0 6703.0
564918.0 1094694.0 6820.0
565486.0 1095129.0 6647.0
573404.0 1102903.0 6783.0
574571.0 1104083.0 6804.0
564788.0 1094730.0 6760.0
566786.0 1096612.0 6777.0
574562.0 1104204.0 6812.0
564813.0 1094792.0 6656.0
566787.0 1096658.0 6746.0
572756.0 1102562.0 6833.0
573283.0 1102971.0 6687.0
574773.0 1104544.0 6814.0
572583.0 1102522.0 6837.0
566576.0 1096774.0 6778.0
572404.0 1102627.0 6719.0
573700.0 1104088.0 6669.0
567008.0 1097884.0 6788.0
566170.0 1097266.0 6797.0
569757.0 1102625.0 6831.0
562805.0 1096383.0 6827.0
569151.0 1102490.0 6825.0
570307.0 1104213.0 6767.0
563241.0 1098012.0 6820.0
572469.0 1107314.0 6812.0
572402.0 1107398.0 6652.0
562106.0 1098003.0 6644.0
565754.0 1101470.0 6809.0
572435.0 1107773.0 6693.0
572089.0 1107662.0 6763.0
561908.0 1098571.0 6805.0
567842.0 1103938.0 6698.0
568335.0 1104465.0 6759.0
568189.0 1104503.0 6662.0
571970.0 1108253.0 6660.0
560799.0 1098240.0 6809.0
561867.0 1099093.0 6658.0
561111.0 1098576.0 6688.0
568531.0 1105490.0 6733.0
565575.0 1102993.0 6664.0
562565.0 1100606.0 6774.0
562313.0 1100538.0 6725.0
566133.0 1103966.0 6712.0
567108.0 1104928.0 6827.0
567568.0 1105299.0 6720.0
568965.0 1106639.0 6738.0
567822.0 1105751.0 6713.0
568916.0 1106714.0 6672.0
561928.0 1100506.0 6643.0
567776.0 1105867.0 6802.0
568837.0 1106722.0 6663.0
569252.0 1107257.0 6820.0
569119.0 1107159.0 6750.0
569197.0 1107419.0 6789.0
569696.0 1108097.0 6734.0
569571.0 1108146.0 6814.0
567986.0 1106910.0 6782.0
567926.0 1106986.0 6679.0
570438.0 1109287.0 6775.0
567862.0 1107262.0 6639.0
567857.0 1108083.0 6640.0
568058.0 1108818.0 6789.0
570931.0 1111324.0 6720.0
562477.0 1103863.0 6800.0
570483.0 1111043.0 6723.0
568082.0 1109674.0 6712.0
563329.0 1105799.0 6673.0
568059.0 1110001.0 6691.0
567335.0 1109640.0 6777.0
568337.0 1110462.0 6650.0
568763.0 1110905.0 6780.0
569235.0 1111375.0 6816.0
567131.0 1109633.0 6742.0
567224.0 1110068.0 6828.0
568857.0 1111509.0 6825.0
561541.0 1105350.0 6791.0
565396.0 1108658.0 6689.0
568773.0 1111691.0 6790.0
561144.0 1105348.0 6673.0
563169.0 1107112.0 6638.0
560517.0 1105122.0 6813.0
561949.0 1106331.0 6731.0
565815.0 1109881.0 6832.0
568189.0 1111964.0 6775.0
565488.0 1109844.0 6721.0
560830.0 1105973.0 6736.0
564064.0 1108800.0 6830.0
565499.0 1110008.0 6718.0
565986.0 1110412.0 6674.0
561752.0 1106936.0 6678.0
565382.0 1110046.0 6666.0
559982.0 1105630.0 6726.0
563769.0 1108879.0 6710.0
565240.0 1110071.0 6650.0
561140.0 1107212.0 6762.0
559643.0 1106178.0 6691.0
560612.0 1107036.0 6659.0
562965.0 1109009.0 6675.0
563415.0 1109378.0 6727.0
563897.0 1109810.0 6728.0
563014.0 1109299.0 6661.0
560819.0 1107688.0 6719.0
560314.0 1107449.0 6759.0
559708.0 1107220.0 6738.0
560184.0 1107666.0 6771.0
559180.0 1107046.0 6782.0
559647.0 1107373.0 6769.0
560125.0 1107734.0 6695.0
558924.0 1106893.0 6717.0
559371.0 1107285.0 6772.0
559846.0 1107656.0 6687.0
558872.0 1106952.0 6767.0
559394.0 1107351.0 6758.0
559875.0 1107769.0 6710.0
575947.0 1101755.0 6659.0
575150.0 1104332.0 6834.0
575759.0 1101811.0 6747.0
574853.0 1104342.0 6823.0
575508.0 1101781.0 6770.0
574076.0 1105175.0 6670.0
573507.0 1103856.0 6729.0
571998.0 1108286.0 6674.0
572126.0 1107875.0 6747.0
572269.0 1107474.0 6748.0
573350.0 1103085.0 6713.0
573414.0 1102706.0 6726.0
574254.0 1099229.0 6656.0
571936.0 1107745.0 6793.0
573437.0 1101279.0 6647.0
573491.0 1100113.0 6769.0
572691.0 1102167.0 6739.0
573099.0 1100497.0 6639.0
573268.0 1100094.0 6731.0
570397.0 1110810.0 6798.0
572148.0 1102452.0 6672.0
570241.0 1109083.0 6734.0
570326.0 1108664.0 6724.0
568946.0 1113937.0 6836.0
570037.0 1108900.0 6810.0
568582.0 1112048.0 6791.0
568808.0 1111654.0 6774.0
569566.0 1108097.0 6731.0
571365.0 1100734.0 6761.0
571545.0 1099867.0 6696.0
571667.0 1099445.0 6724.0
571801.0 1099006.0 6810.0
569211.0 1107326.0 6811.0
567936.0 1110911.0 6711.0
568143.0 1110072.0 6678.0
568233.0 1109644.0 6693.0
568918.0 1106775.0 6763.0
569858.0 1101917.0 6757.0
567605.0 1110390.0 6822.0
567843.0 1109059.0 6655.0
567935.0 1108613.0 6696.0
567432.0 1109710.0 6702.0
567523.0 1109300.0 6703.0
567830.0 1108068.0 6705.0
567968.0 1107220.0 6697.0
571045.0 1094694.0 6805.0
567724.0 1107179.0 6642.0
567874.0 1106328.0 6650.0
568026.0 1105923.0 6749.0
568288.0 1104610.0 6747.0
570697.0 1094809.0 6665.0
570453.0 1094777.0 6813.0
567367.0 1104717.0 6791.0
569897.0 1094450.0 6798.0
566812.0 1105647.0 6662.0
569664.0 1093953.0 6788.0
567938.0 1099897.0 6800.0
569509.0 1093837.0 6809.0
566704.0 1104164.0 6659.0
566359.0 1104765.0 6737.0
564938.0 1109575.0 6665.0
565696.0 1106186.0 6795.0
564885.0 1107262.0 6834.0
567042.0 1098084.0 6809.0
564836.0 1106567.0 6722.0
567067.0 1096748.0 6743.0
563856.0 1110264.0 6662.0
563944.0 1109803.0 6644.0
564073.0 1109358.0 6800.0
564555.0 1107178.0 6699.0
564722.0 1106740.0 6793.0
564931.0 1105369.0 6726.0
565807.0 1101449.0 6714.0
566771.0 1097583.0 6832.0
566823.0 1097142.0 6691.0
566922.0 1096760.0 6726.0
563875.0 1109363.0 6799.0
564059.0 1108511.0 6671.0
564376.0 1107158.0 6778.0
566606.0 1097364.0 6828.0
566688.0 1096924.0 6744.0
563577.0 1109364.0 6825.0
563657.0 1108947.0 6753.0
566342.0 1097241.0 6834.0
566434.0 1096833.0 6832.0
563216.0 1109528.0 6798.0
563420.0 1108701.0 6652.0
566005.0 1097256.0 6771.0
565933.0 1094541.0 6660.0
566135.0 1093776.0 6670.0
565792.0 1093780.0 6675.0
561241.0 1107313.0 6736.0
563345.0 1097665.0 6713.0
563447.0 1097269.0 6752.0
561315.0 1105570.0 6761.0
562335.0 1100642.0 6673.0
562987.0 1096525.0 6649.0
560602.0 1105948.0 6646.0
560909.0 1104764.0 6646.0
561150.0 1103545.0 6678.0
561841.0 1100569.0 6705.0
562802.0 1096551.0 6772.0
560253.0 1106578.0 6761.0
560830.0 1103883.0 6786.0
560952.0 1103462.0 6818.0
559863.0 1107327.0 6829.0
559414.0 1107192.0 6783.0
561007.0 1099528.0 6660.0
559446.0 1105789.0 6670.0
559043.0 1107098.0 6836.0
560745.0 1098649.0 6645.0
560867.0 1098264.0 6671.0
558832.0 1106775.0 6739.0
559090.0 1105932.0 6812.0
559185.0 1105046.0 6754.0
560636.0 1098370.0 6763.0
558663.0 1106729.0 6823.0
568105.0 1112075.0 6797.0
568176.0 1111890.0 6731.0
568643.0 1111736.0 6750.0
569278.0 1111622.0 6643.0
568910.0 1111467.0 6685.0
567878.0 1111036.0 6761.0
564205.0 1109588.0 6765.0
563848.0 1109488.0 6770.0
569173.0 1111198.0 6710.0
568828.0 1111052.0 6743.0
567749.0 1110577.0 6821.0
563825.0 1109063.0 6801.0
560219.0 1107621.0 6764.0
559486.0 1107307.0 6837.0
559132.0 1107147.0 6836.0
564033.0 1108824.0 6765.0
559086.0 1106869.0 6721.0
567985.0 1110089.0 6687.0
567253.0 1109774.0 6786.0
564310.0 1108660.0 6735.0
560992.0 1107310.0 6759.0
560623.0 1107178.0 6803.0
560288.0 1107021.0 6814.0
568191.0 1109928.0 6649.0
567453.0 1109591.0 6739.0
561635.0 1107346.0 6685.0
561270.0 1107231.0 6662.0
567519.0 1109408.0 6691.0
