83550.473000 447356.597000 10.903000
83552.882000 447358.985000 11.557000
83566.079000 447367.635000 5.174000
83567.679000 447370.202000 7.240000
83513.375000 447327.771000 9.878000
83514.405000 447329.070000 11.221000
83515.664000 447330.047000 11.406000
83518.111000 447330.211000 7.913000
83533.037000 447341.305000 8.003000
83534.617000 447340.994000 4.614000
83533.281000 447345.469000 16.608000
83534.311000 447345.118000 14.103000
83535.242000 447345.742000 13.932000
83535.270000 447347.544000 17.715000
83539.231000 447346.287000 8.242000
83539.317000 447350.849000 17.906000
83541.618000 447349.795000 11.646000
83544.825000 447353.402000 13.676000
83547.131000 447353.525000 9.998000
83548.509000 447353.677000 7.825000
83550.237000 447354.497000 6.644000
83553.004000 447356.943000 6.823000
83553.490000 447359.239000 10.653000
83565.889000 447367.673000 5.350000
83513.674000 447327.816000 9.092000
83516.311000 447329.374000 8.478000
83517.971000 447330.756000 8.887000
83533.350000 447340.251000 4.728000
83534.249000 447340.880000 4.677000
83533.245000 447344.992000 15.283000
83534.371000 447347.035000 17.831000
83536.267000 447347.373000 15.271000
83540.043000 447347.089000 8.208000
83539.227000 447350.886000 17.765000
83543.777000 447351.672000 11.574000
83546.128000 447355.126000 14.762000
83548.719000 447353.922000 7.588000
83549.525000 447355.660000 9.823000
83551.964000 447356.522000 7.424000
83552.360000 447358.832000 11.525000
83564.790000 447368.279000 8.302000
83565.996000 447369.833000 9.238000
83513.214000 447328.563000 10.963000
83514.538000 447329.543000 11.149000
83531.771000 447341.914000 10.406000
83534.032000 447340.904000 4.492000
83532.418000 447344.923000 16.061000
83533.376000 447345.756000 16.187000
83536.144000 447345.063000 10.068000
83536.308000 447346.847000 13.653000
83537.837000 447346.929000 11.219000
83539.537000 447347.794000 10.120000
83539.351000 447352.978000 21.527000
83547.092000 447355.543000 13.519000
83549.573000 447354.618000 7.131000
83551.256000 447356.787000 8.771000
83552.150000 447358.780000 11.448000
83513.640000 447328.586000 9.591000
83515.380000 447328.872000 7.424000
83532.160000 447344.320000 14.437000
83532.818000 447345.237000 15.401000
83534.505000 447344.917000 11.817000
83535.388000 447345.616000 11.847000
83535.872000 447346.804000 13.625000
83537.966000 447345.039000 6.166000
83538.256000 447346.527000 8.923000
83539.070000 447348.406000 11.608000
83540.930000 447347.791000 7.125000
83541.149000 447349.368000 10.073000
83539.926000 447353.701000 21.397000
83543.625000 447351.938000 11.311000
83548.141000 447356.768000 13.622000
83552.455000 447359.281000 11.325000
83512.429000 447327.951000 9.150000
83532.663000 447342.124000 8.053000
83533.455000 447344.819000 12.570000
83535.436000 447346.729000 13.479000
83536.872000 447348.488000 14.683000
83539.672000 447347.696000 8.258000
83540.206000 447348.887000 9.998000
83540.910000 447349.863000 10.699000
83539.844000 447353.844000 21.235000
83543.880000 447353.455000 13.334000
83545.858000 447353.749000 10.516000
83547.171000 447354.971000 10.806000
83550.104000 447356.025000 7.886000
83551.783000 447358.661000 10.398000
83554.256000 447358.583000 5.806000
83512.547000 447328.298000 8.968000
83533.661000 447340.419000 1.888000
83534.141000 447341.816000 4.153000
83533.558000 447344.525000 10.936000
83533.543000 447346.528000 15.492000
83534.426000 447346.430000 13.737000
83534.801000 447347.969000 16.468000
83537.716000 447352.297000 20.725000
83539.673000 447353.741000 20.582000
83542.146000 447354.753000 18.420000
83544.628000 447354.740000 14.086000
83548.289000 447357.446000 13.341000
83563.176000 447367.531000 7.479000
83565.067000 447369.798000 8.518000
83486.550000 447314.312000 14.981000
83531.676000 447344.697000 13.990000
83532.218000 447345.730000 15.455000
83534.166000 447347.025000 14.825000
83536.480000 447346.799000 10.560000
83537.314000 447347.585000 10.746000
83540.100000 447345.975000 2.589000
83539.184000 447352.713000 18.690000
83545.563000 447352.312000 6.786000
83546.337000 447355.240000 11.531000
83547.116000 447356.073000 12.107000
83551.101000 447358.972000 11.095000
83564.642000 447369.798000 8.761000
83531.153000 447341.754000 7.992000
83532.948000 447341.187000 3.868000
83534.249000 447342.269000 4.160000
83533.677000 447345.674000 12.441000
83535.767000 447349.349000 16.930000
83538.555000 447348.489000 10.311000
83537.380000 447351.801000 19.514000
83538.319000 447351.627000 17.487000
83540.776000 447350.240000 10.215000
83540.714000 447354.867000 20.312000
83545.126000 447352.308000 7.178000
83547.958000 447355.248000 8.450000
83552.308000 447357.537000 5.600000
83533.772000 447341.992000 3.826000
83535.079000 447344.177000 6.523000
83534.725000 447347.710000 14.856000
83535.519000 447348.676000 15.525000
83537.694000 447347.856000 10.026000
83539.983000 447345.912000 2.030000
83541.007000 447346.646000 1.699000
83540.858000 447349.876000 9.101000
83539.949000 447353.998000 19.412000
83543.365000 447353.833000 13.261000
83545.338000 447354.414000 11.149000
83546.936000 447354.519000 8.416000
83548.120000 447357.143000 11.863000
83551.597000 447358.141000 7.889000
83563.516000 447367.529000 5.824000
83487.133000 447315.396000 15.006000
83514.828000 447331.462000 10.742000
83532.911000 447341.123000 3.002000
83532.190000 447344.951000 12.537000
83534.474000 447345.612000 10.084000
83534.717000 447348.026000 15.045000
83535.819000 447348.481000 14.123000
83538.204000 447347.215000 7.296000
83538.880000 447348.224000 8.370000
83537.877000 447351.413000 16.981000
83538.155000 447352.887000 19.668000
83539.607000 447352.889000 17.161000
83540.665000 447353.426000 16.503000
83542.753000 447353.638000 13.283000
83544.127000 447355.597000 15.062000
83546.645000 447354.490000 8.359000
83563.354000 447367.485000 5.617000
83565.061000 447369.410000 6.447000
83531.957000 447341.116000 3.949000
83532.007000 447342.861000 7.871000
83532.562000 447343.912000 9.168000
83537.877000 447351.411000 16.366000
83539.494000 447353.814000 18.882000
83540.671000 447354.200000 17.698000
83544.022000 447355.396000 14.504000
83546.481000 447355.214000 9.794000
83552.050000 447358.506000 7.080000
83487.950000 447316.001000 13.974000
83532.011000 447341.290000 3.822000
83532.993000 447342.067000 3.906000
83533.821000 447343.873000 6.476000
83534.418000 447345.030000 7.983000
83538.713000 447345.554000 1.821000
83538.415000 447347.829000 7.337000
83540.052000 447353.729000 17.277000
83545.947000 447354.461000 8.744000
83547.536000 447355.599000 8.294000
83563.504000 447368.017000 5.641000
83487.165000 447314.920000 12.129000
83532.445000 447340.675000 1.344000
83531.175000 447345.057000 13.084000
83533.560000 447343.829000 6.365000
83536.120000 447345.924000 6.678000
83537.829000 447347.485000 7.197000
83538.659000 447348.193000 7.288000
83537.588000 447351.456000 16.159000
83538.299000 447352.427000 17.144000
83538.917000 447353.423000 18.246000
83541.876000 447354.416000 15.187000
83543.793000 447354.807000 12.820000
83546.267000 447354.602000 8.046000
83547.047000 447357.415000 12.580000
83551.077000 447358.238000 7.216000
83553.052000 447358.730000 4.797000
83532.950000 447341.097000 1.064000
83532.762000 447345.865000 11.854000
83533.677000 447346.505000 11.654000
83538.601000 447348.297000 7.319000
83537.761000 447352.048000 16.879000
83540.462000 447349.523000 6.718000
83538.729000 447354.503000 20.525000
83539.907000 447354.810000 19.170000
83541.348000 447354.809000 16.597000
83544.292000 447353.935000 9.725000
83545.943000 447354.592000 8.325000
83545.990000 447357.268000 13.834000
83547.694000 447357.102000 10.462000
83549.114000 447359.030000 12.054000
83551.215000 447358.330000 7.091000
83564.411000 447369.504000 6.493000
83531.109000 447343.277000 8.561000
83532.003000 447344.131000 8.976000
83532.256000 447345.728000 12.049000
83534.510000 447343.710000 3.856000
83534.761000 447349.405000 15.896000
83537.655000 447347.635000 7.160000
83537.117000 447350.354000 13.941000
83536.922000 447352.663000 19.404000
83537.925000 447352.343000 16.866000
83539.189000 447352.684000 15.521000
83540.717000 447354.837000 17.638000
83547.087000 447358.055000 13.362000
83487.621000 447313.781000 7.293000
83489.260000 447315.613000 9.170000
83491.765000 447316.962000 8.822000
83531.438000 447340.573000 1.551000
83532.329000 447345.896000 11.810000
83534.677000 447344.621000 5.127000
83536.782000 447348.349000 9.761000
83536.200000 447350.983000 16.464000
83539.423000 447349.682000 8.264000
83539.950000 447353.620000 15.677000
83541.292000 447353.845000 13.966000
83543.574000 447353.746000 9.767000
83544.957000 447354.849000 9.836000
83545.757000 447356.716000 12.420000
83548.159000 447355.607000 5.849000
83549.424000 447356.920000 6.461000
83552.446000 447358.956000 5.386000
83564.174000 447369.547000 6.427000
83531.870000 447341.094000 1.342000
83533.010000 447342.234000 2.096000
83533.798000 447343.070000 2.689000
83532.969000 447345.978000 10.361000
83535.337000 447347.308000 9.326000
83537.191000 447347.670000 7.046000
83538.007000 447348.386000 7.209000
83537.392000 447351.906000 15.696000
83540.411000 447352.587000 12.198000
83545.344000 447357.382000 14.006000
83548.151000 447355.787000 5.735000
83547.999000 447358.701000 12.070000
83551.958000 447359.506000 6.934000
83530.733000 447341.681000 3.951000
83532.201000 447342.635000 3.582000
83533.467000 447342.931000 2.125000
83532.401000 447346.373000 11.552000
83533.282000 447347.123000 11.679000
83538.301000 447346.627000 2.157000
83539.254000 447347.169000 1.769000
83539.421000 447354.078000 16.523000
83540.009000 447355.306000 18.019000
83550.077000 447359.969000 10.612000
83552.616000 447359.966000 6.185000
83562.739000 447368.053000 4.877000
83487.513000 447316.104000 10.639000
83531.111000 447341.197000 1.643000
83532.000000 447342.727000 3.588000
83533.973000 447343.685000 2.372000
83536.954000 447348.095000 7.149000
83538.472000 447348.013000 4.377000
83536.596000 447353.147000 18.697000
83538.125000 447353.029000 15.977000
83540.778000 447353.375000 12.058000
83541.229000 447354.616000 13.978000
83545.697000 447353.687000 4.176000
83545.676000 447356.519000 10.384000
83547.267000 447356.375000 7.338000
83548.043000 447358.287000 10.070000
83551.563000 447359.644000 6.756000
83489.573000 447316.431000 7.954000
83531.211000 447342.445000 3.639000
83532.648000 447342.313000 0.972000
83533.305000 447344.243000 4.143000
83533.690000 447345.467000 6.178000
83535.605000 447345.599000 3.313000
83537.385000 447346.953000 3.272000
83538.405000 447347.374000 2.361000
83538.240000 447354.798000 18.985000
83539.862000 447353.669000 13.681000
83540.234000 447355.015000 15.960000
83540.807000 447356.128000 17.369000
83544.192000 447354.613000 8.373000
83545.360000 447355.819000 8.841000
83545.832000 447358.052000 12.758000
83547.385000 447358.823000 11.786000
83488.834000 447316.195000 7.711000
83491.484000 447318.657000 9.618000
83532.047000 447342.617000 1.998000
83531.723000 447346.084000 10.212000
83533.121000 447347.080000 10.089000
83535.364000 447347.143000 6.429000
83537.968000 447346.807000 1.382000
83536.015000 447351.199000 14.125000
83536.105000 447353.186000 18.442000
83537.406000 447353.507000 16.862000
83538.094000 447354.564000 18.165000
83539.675000 447354.508000 15.170000
83544.286000 447354.806000 8.059000
83546.903000 447356.520000 7.150000
83547.946000 447359.328000 11.299000
83549.633000 447360.305000 10.487000
83551.527000 447360.131000 6.726000
83491.353000 447318.839000 9.616000
83531.484000 447342.425000 1.835000
83532.432000 447343.982000 3.714000
83534.584000 447344.754000 1.786000
83536.130000 447346.489000 3.111000
83537.057000 447352.704000 15.117000
83540.656000 447351.748000 6.902000
83545.560000 447354.010000 3.413000
83544.955000 447357.636000 12.295000
83547.019000 447358.819000 11.240000
83549.050000 447359.125000 8.342000
83563.387000 447370.177000 5.948000
83486.181000 447314.808000 6.652000
83531.128000 447342.451000 1.910000
83532.360000 447343.505000 2.300000
83535.041000 447346.288000 3.807000
83534.509000 447350.712000 14.641000
83537.686000 447348.311000 3.991000
83536.952000 447352.024000 13.482000
83545.101000 447354.517000 4.822000
83546.705000 447355.236000 3.627000
83549.848000 447358.787000 5.895000
83532.209000 447343.594000 2.301000
83532.372000 447347.366000 10.393000
83534.787000 447347.148000 5.849000
83536.886000 447347.336000 2.817000
83535.227000 447352.574000 16.922000
83538.791000 447348.888000 3.038000
83537.112000 447353.057000 14.928000
83538.574000 447354.105000 14.708000
83538.928000 447355.773000 17.751000
83540.389000 447355.861000 15.437000
83550.015000 447359.044000 5.604000
83552.133000 447360.560000 5.196000
83486.006000 447315.151000 6.536000
83486.979000 447317.213000 10.085000
83530.609000 447343.266000 3.796000
83530.832000 447346.657000 10.768000
83534.204000 447344.868000 1.331000
83535.594000 447351.299000 13.200000
83536.694000 447351.875000 12.586000
83536.702000 447353.743000 16.587000
83537.449000 447355.432000 19.224000
83542.225000 447356.676000 13.608000
83544.013000 447357.265000 11.775000
83547.862000 447360.054000 11.133000
83550.393000 447359.771000 6.102000
83552.004000 447360.644000 5.203000
83487.194000 447317.053000 8.779000
83488.039000 447319.179000 12.518000
83531.559000 447343.579000 2.320000
83534.199000 447350.939000 14.069000
83534.524000 447352.351000 16.583000
83535.999000 447351.221000 11.738000
83538.482000 447349.750000 4.367000
83537.923000 447353.240000 13.030000
83539.515000 447355.652000 15.441000
83545.586000 447354.339000 2.394000
83546.428000 447355.080000 2.438000
83548.514000 447359.769000 8.847000
83551.258000 447360.202000 5.041000
83487.762000 447316.777000 6.316000
83488.997000 447318.465000 8.618000
83531.244000 447347.313000 10.438000
83537.108000 447348.347000 2.859000
83534.896000 447353.223000 17.235000
83538.050000 447354.967000 15.747000
83540.118000 447353.383000 8.824000
83541.931000 447357.047000 13.673000
83543.514000 447358.016000 13.049000
83548.397000 447359.954000 8.773000
83551.263000 447360.484000 4.995000
83487.566000 447316.897000 6.256000
83488.201000 447320.287000 13.151000
83532.528000 447344.544000 1.322000
83533.340000 447346.099000 3.409000
83534.731000 447351.632000 13.168000
83536.005000 447351.834000 11.601000
83537.508000 447351.714000 8.777000
83537.856000 447353.962000 13.129000
83541.902000 447357.068000 13.000000
83545.109000 447355.904000 5.059000
83546.263000 447356.231000 3.865000
83550.593000 447360.296000 5.053000
83486.808000 447319.326000 12.073000
83489.631000 447320.814000 11.569000
83532.617000 447345.870000 3.440000
83533.870000 447347.742000 5.525000
83534.282000 447350.890000 11.802000
83534.844000 447351.928000 13.096000
83538.203000 447350.189000 3.685000
83537.288000 447353.246000 11.954000
83538.535000 447354.307000 12.022000
83539.766000 447355.435000 12.495000
83545.148000 447355.834000 4.214000
83545.855000 447357.768000 7.205000
83550.801000 447360.830000 5.181000
83532.673000 447345.205000 1.499000
83535.792000 447347.950000 2.396000
83534.412000 447352.740000 15.224000
83536.152000 447351.426000 9.280000
83537.127000 447352.188000 9.539000
83537.170000 447354.106000 13.667000
83539.046000 447356.689000 16.027000
83541.469000 447356.484000 11.470000
83544.647000 447355.550000 4.065000
83545.643000 447356.300000 4.074000
83546.790000 447358.857000 7.484000
83487.278000 447317.876000 7.214000
83531.583000 447345.414000 3.394000
83533.314000 447345.738000 1.171000
83533.592000 447350.072000 10.436000
83535.022000 447353.755000 16.141000
83536.897000 447353.137000 11.834000
83537.173000 447355.462000 16.280000
83537.917000 447356.380000 17.001000
83539.130000 447356.709000 15.801000
83545.057000 447357.612000 7.536000
83546.872000 447359.061000 7.543000
83533.288000 447349.885000 10.144000
83534.689000 447350.739000 9.678000
83534.939000 447353.154000 14.623000
83536.152000 447355.153000 16.966000
83540.466000 447351.277000 1.276000
83539.364000 447355.494000 12.317000
83541.373000 447356.590000 11.336000
83543.869000 447357.007000 7.979000
83545.353000 447356.947000 5.333000
83547.061000 447359.356000 7.508000
83486.168000 447317.255000 6.082000
83487.592000 447318.709000 7.484000
83532.091000 447346.053000 3.160000
83535.624000 447348.172000 1.989000
83535.583000 447351.335000 9.138000
83535.442000 447353.419000 13.917000
83538.126000 447353.814000 10.323000
83539.401000 447354.198000 8.976000
83540.015000 447356.389000 12.716000
83542.635000 447357.024000 9.680000
83544.877000 447357.202000 6.234000
83546.555000 447359.029000 7.263000
83548.581000 447361.560000 9.305000
83487.584000 447318.235000 5.775000
83487.782000 447320.588000 11.001000
83535.704000 447348.476000 2.037000
83536.685000 447354.584000 13.809000
83537.775000 447355.803000 14.581000
83540.074000 447354.733000 8.504000
83544.032000 447357.141000 7.058000
83546.436000 447359.585000 8.193000
83487.348000 447319.070000 7.487000
83488.396000 447320.810000 10.052000
83531.467000 447345.941000 2.892000
83533.397000 447346.896000 1.860000
83534.660000 447353.372000 14.020000
83536.389000 447354.633000 13.899000
83538.560000 447356.203000 13.892000
83545.337000 447360.134000 10.832000
83486.298000 447320.945000 12.926000
83488.049000 447320.793000 10.031000
83534.404000 447351.081000 9.236000
83538.202000 447353.912000 9.040000
83539.893000 447356.705000 12.236000
83544.322000 447358.959000 9.637000
83546.394000 447359.370000 7.065000
83548.393000 447360.906000 6.894000
83555.616000 447369.369000 12.296000
83486.043000 447319.834000 10.106000
83487.639000 447320.764000 10.288000
83531.727000 447346.545000 3.040000
83535.758000 447349.367000 2.843000
83535.575000 447352.355000 9.616000
83541.447000 447357.565000 11.214000
83544.413000 447359.384000 10.073000
83530.979000 447346.033000 2.695000
83535.520000 447349.030000 1.910000
83534.216000 447353.562000 13.997000
83536.585000 447352.093000 6.898000
83536.951000 447353.421000 9.224000
83538.707000 447352.957000 5.160000
83538.676000 447354.768000 9.359000
83556.196000 447369.560000 10.827000
83558.043000 447370.147000 8.836000
83488.542000 447322.034000 10.696000
83529.778000 447344.377000 0.285000
83534.353000 447351.973000 9.662000
83535.097000 447354.003000 12.927000
83536.856000 447353.626000 9.274000
83539.535000 447352.056000 1.401000
83540.509000 447357.757000 11.970000
83547.166000 447361.397000 8.724000
83555.414000 447369.691000 12.089000
83558.175000 447370.493000 8.941000
83530.484000 447345.240000 0.186000
83534.050000 447350.476000 5.960000
83536.053000 447352.379000 7.043000
83541.907000 447358.675000 10.962000
83554.897000 447370.643000 14.177000
83557.040000 447370.019000 9.208000
83504.125000 447329.312000 3.498000
83531.899000 447346.699000 0.428000
83534.604000 447350.281000 3.974000
83535.010000 447352.355000 7.903000
83536.086000 447352.706000 6.868000
83537.015000 447354.224000 8.737000
83538.940000 447352.569000 1.838000
83538.586000 447354.820000 7.315000
83543.319000 447358.616000 7.760000
83555.903000 447370.483000 11.524000
83559.041000 447371.451000 8.004000
83502.474000 447328.601000 3.522000
83504.032000 447329.968000 4.586000
83529.915000 447345.742000 0.718000
83531.661000 447347.283000 1.504000
83534.536000 447352.163000 7.667000
83536.005000 447352.171000 5.206000
83537.798000 447351.759000 1.407000
83538.413000 447354.908000 7.242000
83543.947000 447360.625000 10.459000
83554.510000 447369.700000 11.622000
83555.617000 447371.413000 13.368000
83557.527000 447371.134000 9.358000
83558.014000 447373.621000 13.599000
83486.532000 447320.783000 7.172000
83503.468000 447328.983000 2.461000
83530.195000 447346.509000 1.574000
83534.102000 447350.283000 3.672000
83536.054000 447353.150000 6.798000
83537.896000 447353.384000 4.207000
83536.936000 447357.541000 15.001000
83543.097000 447359.473000 8.916000
83554.348000 447369.606000 11.333000
83557.583000 447371.359000 9.369000
83534.297000 447352.461000 7.738000
83535.928000 447352.024000 4.077000
83536.658000 447353.795000 6.969000
83536.601000 447356.612000 13.152000
83538.621000 447356.534000 9.561000
83553.888000 447368.931000 10.355000
83556.204000 447372.683000 14.312000
83557.789000 447373.581000 13.301000
83502.770000 447329.169000 2.900000
83503.784000 447330.505000 4.405000
83529.501000 447346.526000 1.744000
83531.951000 447348.030000 1.086000
83535.021000 447351.724000 4.328000
83535.643000 447353.857000 7.986000
83537.645000 447354.089000 5.201000
83538.223000 447355.330000 6.988000
83544.350000 447361.217000 9.668000
83553.044000 447368.538000 10.414000
83554.448000 447370.942000 13.083000
83556.164000 447371.897000 12.091000
83500.800000 447328.411000 2.970000
83502.530000 447329.194000 2.372000
83533.279000 447351.534000 5.942000
83534.348000 447352.041000 5.314000
83535.492000 447352.213000 3.896000
83536.467000 447353.752000 5.675000
83540.466000 447358.622000 9.761000
83542.647000 447359.443000 7.920000
83555.188000 447370.935000 11.016000
83556.038000 447372.787000 13.526000
83499.807000 447328.685000 4.192000
83501.171000 447329.205000 3.590000
83533.506000 447351.534000 4.924000
83535.172000 447352.951000 5.303000
83538.355000 447354.105000 2.617000
83539.772000 447354.951000 2.130000
83541.374000 447358.343000 6.961000
83544.300000 447360.950000 7.635000
83551.694000 447369.072000 12.401000
83552.946000 447371.302000 15.076000
83556.641000 447371.301000 8.702000
83499.660000 447328.458000 3.319000
83503.864000 447330.354000 1.663000
83533.030000 447351.539000 4.991000
83534.863000 447350.969000 0.788000
83535.517000 447353.118000 4.341000
83536.995000 447354.054000 4.187000
83537.925000 447355.753000 6.281000
83543.366000 447360.644000 8.006000
83552.696000 447370.038000 12.256000
83553.608000 447371.991000 14.857000
83558.636000 447373.154000 8.533000
83499.862000 447328.815000 3.238000
83502.188000 447330.518000 3.866000
83534.531000 447352.065000 3.212000
83534.925000 447353.288000 5.311000
83536.601000 447352.914000 1.656000
83537.146000 447354.960000 5.352000
83539.135000 447355.050000 2.383000
83556.395000 447370.538000 6.450000
83556.445000 447373.336000 12.134000
83557.741000 447374.646000 12.787000
83499.941000 447329.539000 4.347000
83502.083000 447330.504000 3.521000
83503.255000 447330.414000 1.650000
83533.072000 447352.233000 5.668000
83535.239000 447353.775000 5.557000
83536.102000 447354.396000 5.504000
83539.332000 447354.543000 0.509000
83551.973000 447368.286000 9.194000
83551.645000 447371.448000 16.400000
83553.973000 447370.368000 9.986000
83556.088000 447372.435000 10.752000
83558.122000 447374.595000 11.683000
83499.258000 447328.560000 2.604000
83500.705000 447330.144000 4.480000
83502.086000 447330.721000 3.666000
83530.756000 447348.330000 0.394000
83533.101000 447352.865000 6.674000
83534.829000 447352.551000 3.254000
83536.220000 447352.589000 1.018000
83539.075000 447355.724000 3.245000
83540.993000 447359.043000 7.386000
83553.057000 447369.532000 9.639000
83557.666000 447374.147000 11.283000
83498.896000 447329.343000 4.656000
83500.618000 447329.229000 1.948000
83501.576000 447330.334000 3.131000
83503.445000 447331.958000 4.245000
83533.843000 447353.255000 6.076000
83534.897000 447353.610000 5.218000
83535.959000 447354.032000 4.442000
83537.716000 447354.461000 2.483000
83541.002000 447359.296000 7.672000
83550.491000 447368.408000 11.437000
83553.419000 447370.402000 10.627000
83553.866000 447372.640000 14.570000
83555.211000 447373.777000 14.758000
83499.318000 447328.907000 2.624000
83500.256000 447329.987000 3.920000
83501.581000 447330.510000 3.081000
83502.736000 447330.558000 1.651000
83504.718000 447331.811000 1.641000
83532.980000 447351.670000 3.659000
83534.888000 447353.607000 4.998000
83535.851000 447354.085000 4.421000
83537.088000 447354.139000 2.617000
83538.436000 447355.080000 2.359000
83540.062000 447358.312000 6.729000
83550.597000 447369.374000 13.091000
83551.668000 447369.821000 12.292000
83552.484000 447371.514000 14.398000
83554.246000 447371.209000 10.806000
83555.109000 447372.017000 10.919000
83557.577000 447373.601000 9.968000
83498.123000 447328.074000 1.899000
83499.402000 447329.808000 4.028000
83500.922000 447330.226000 2.938000
83504.251000 447331.678000 1.717000
83532.530000 447352.851000 6.711000
83534.128000 447352.585000 3.419000
83534.875000 447353.479000 4.275000
83553.897000 447370.833000 10.179000
83554.765000 447372.841000 13.064000
83556.034000 447373.311000 11.710000
83498.463000 447329.083000 3.204000
83499.685000 447329.866000 3.417000
83500.487000 447331.227000 5.285000
83503.245000 447333.116000 5.885000
83506.802000 447333.906000 2.611000
83532.840000 447352.510000 4.944000
83535.200000 447353.822000 4.090000
83550.806000 447367.974000 8.896000
83552.034000 447369.221000 9.682000
83554.143000 447371.360000 10.650000
83498.655000 447329.255000 2.816000
83499.538000 447330.520000 4.528000
83500.731000 447330.385000 2.413000
83501.369000 447331.999000 5.331000
83502.542000 447331.894000 3.478000
83505.281000 447332.949000 1.969000
83531.793000 447352.773000 6.845000
83533.196000 447352.642000 4.043000
83535.080000 447354.570000 5.499000
83536.014000 447355.083000 5.000000
83537.984000 447355.170000 2.112000
83550.217000 447370.215000 14.388000
83552.900000 447372.357000 14.340000
83555.630000 447370.799000 6.328000
83554.993000 447374.274000 14.911000
83498.556000 447329.460000 2.865000
83499.944000 447330.246000 2.806000
83503.139000 447332.679000 3.999000
83504.399000 447333.544000 4.069000
83505.977000 447333.917000 2.651000
83532.081000 447353.302000 6.941000
83533.572000 447353.178000 4.310000
83535.368000 447352.657000 0.250000
83536.181000 447353.564000 0.963000
83537.508000 447354.605000 1.102000
83549.988000 447368.273000 10.179000
83553.446000 447373.032000 14.533000
83557.057000 447373.775000 9.784000
83497.589000 447328.918000 2.244000
83498.231000 447330.580000 5.345000
83499.037000 447331.051000 5.126000
83500.326000 447330.852000 2.978000
83501.164000 447332.207000 4.985000
83502.172000 447332.276000 3.687000
83504.588000 447332.969000 1.810000
83505.934000 447333.583000 1.301000
83532.381000 447353.328000 5.963000
83533.598000 447353.407000 4.279000
83534.662000 447354.728000 5.448000
83535.614000 447355.217000 4.984000
83538.974000 447356.154000 1.707000
83549.812000 447369.819000 13.322000
83551.464000 447369.568000 9.952000
83552.009000 447370.810000 11.671000
83554.107000 447373.766000 14.401000
83497.443000 447329.324000 2.610000
83498.831000 447329.677000 1.706000
83499.568000 447331.156000 4.080000
83501.589000 447332.246000 3.863000
83502.798000 447332.025000 1.582000
83504.070000 447332.811000 1.696000
83504.583000 447334.588000 4.972000
83533.528000 447352.832000 2.515000
83534.578000 447354.866000 5.361000
83535.681000 447355.214000 4.336000
83549.469000 447370.373000 14.571000
83551.467000 447372.352000 15.355000
83552.986000 447373.196000 14.578000
83555.629000 447371.734000 6.907000
83555.424000 447374.775000 13.650000
83557.916000 447374.437000 8.622000
83497.354000 447329.418000 2.569000
83500.054000 447331.684000 4.051000
83502.516000 447333.420000 4.595000
83503.973000 447333.987000 3.826000
83506.541000 447334.640000 1.607000
83532.568000 447353.836000 5.755000
83534.006000 447354.797000 5.480000
83535.655000 447354.531000 2.259000
83536.564000 447356.214000 4.596000
83539.913000 447359.546000 6.487000
83553.273000 447370.130000 7.125000
83554.603000 447372.575000 9.977000
83557.520000 447375.111000 10.482000
83497.765000 447330.332000 3.387000
83500.015000 447331.226000 2.314000
83500.492000 447333.216000 6.300000
83501.279000 447333.686000 6.317000
83502.911000 447332.779000 1.923000
83503.861000 447334.135000 3.661000
83504.940000 447335.091000 4.315000
83506.678000 447335.029000 1.730000
83526.079000 447353.072000 13.845000
83532.053000 447353.755000 5.815000
83536.368000 447355.149000 1.930000
83537.396000 447355.636000 1.348000
83548.022000 447369.362000 13.782000
83550.672000 447367.851000 6.092000
83550.022000 447370.568000 13.078000
83550.429000 447371.870000 15.156000
83552.614000 447372.872000 13.485000
83553.942000 447374.066000 13.737000
83557.292000 447375.644000 11.303000
83497.398000 447330.771000 4.257000
83498.886000 447331.851000 4.605000
83500.601000 447331.746000 2.001000
83501.078000 447333.754000 5.998000
83502.629000 447332.934000 1.907000
83503.777000 447333.802000 2.335000
83504.975000 447334.566000 2.365000
83506.300000 447335.201000 1.842000
83509.220000 447336.866000 1.619000
83525.217000 447353.221000 14.733000
83527.258000 447352.967000 11.014000
83532.510000 447352.662000 1.964000
83535.054000 447355.485000 4.193000
83551.197000 447368.780000 6.648000
83552.100000 447369.420000 6.431000
83552.725000 447374.223000 15.606000
83554.889000 447373.311000 10.022000
83555.346000 447375.462000 13.858000
83501.613000 447332.755000 2.176000
83502.344000 447334.526000 5.254000
83503.447000 447334.700000 4.222000
83504.558000 447335.753000 4.844000
83506.464000 447335.680000 2.053000
83525.632000 447352.411000 11.590000
83528.032000 447352.800000 8.614000
83532.656000 447354.156000 4.383000
83536.305000 447355.069000 0.552000
83537.049000 447356.888000 3.387000
83551.360000 447369.250000 6.729000
83551.791000 447370.733000 9.138000
83553.055000 447374.194000 14.347000
83559.452000 447376.591000 8.424000
83498.569000 447331.055000 1.689000
83499.737000 447331.812000 1.817000
83500.102000 447334.010000 6.379000
83501.539000 447333.514000 3.322000
83501.916000 447334.685000 5.491000
83504.596000 447334.921000 2.195000
83525.733000 447353.937000 14.147000
83526.985000 447353.961000 12.051000
83527.955000 447355.260000 13.567000
83532.085000 447354.093000 4.513000
83536.455000 447355.397000 0.360000
83549.310000 447370.869000 13.164000
83550.322000 447371.441000 12.535000
83551.423000 447371.950000 11.771000
83551.925000 447373.204000 13.696000
83553.175000 447374.447000 14.094000
83555.099000 447373.936000 9.708000
83555.550000 447376.221000 13.916000
83558.021000 447375.107000 7.046000
83559.197000 447376.525000 8.144000
83498.313000 447331.230000 1.741000
83499.891000 447333.121000 4.018000
83500.131000 447334.645000 7.160000
83501.191000 447334.645000 5.651000
83502.463000 447335.049000 4.933000
83503.562000 447335.177000 3.475000
83504.459000 447336.383000 5.082000
83507.389000 447338.034000 4.681000
83523.934000 447351.246000 10.239000
83526.947000 447354.954000 13.872000
83528.465000 447355.583000 12.959000
83534.929000 447356.238000 4.070000
83548.407000 447370.876000 14.069000
83549.401000 447372.286000 15.419000
83551.705000 447370.255000 7.089000
83552.436000 447371.198000 7.818000
83552.602000 447373.763000 13.047000
83554.751000 447373.809000 9.425000
83558.277000 447375.072000 6.142000
83559.168000 447376.671000 7.904000
83497.800000 447332.778000 5.529000
83501.124000 447333.172000 1.654000
83502.101000 447334.409000 3.290000
83503.220000 447335.552000 4.321000
83505.429000 447335.733000 1.680000
83523.577000 447351.266000 10.280000
83527.962000 447354.605000 10.838000
83532.294000 447354.303000 3.590000
83534.954000 447355.417000 1.725000
83536.671000 447356.047000 0.335000
83549.619000 447371.574000 13.148000
83551.835000 447370.706000 7.328000
83554.343000 447373.610000 9.345000
83497.731000 447332.820000 5.264000
83498.967000 447333.440000 4.908000
83500.507000 447332.734000 1.129000
83501.013000 447334.578000 4.682000
83502.728000 447336.254000 6.214000
83523.465000 447351.336000 10.237000
83524.333000 447352.662000 11.840000
83525.692000 447353.484000 11.570000
83527.112000 447353.232000 8.857000
83527.949000 447353.802000 8.832000
83528.708000 447355.450000 11.258000
83534.773000 447355.114000 0.879000
83536.211000 447355.852000 0.215000
83549.014000 447370.035000 10.465000
83549.740000 447371.870000 13.055000
83550.648000 447372.508000 12.923000
83551.526000 447373.310000 13.217000
83552.152000 447375.324000 16.287000
83554.083000 447375.696000 13.901000
83558.586000 447375.714000 6.242000
83497.111000 447332.528000 4.821000
83498.520000 447332.792000 3.508000
83499.903000 447333.208000 2.458000
83500.702000 447334.594000 4.657000
83502.376000 447336.289000 6.297000
83504.606000 447338.008000 7.082000
83506.591000 447336.590000 0.949000
83523.579000 447351.574000 10.172000
83524.547000 447352.873000 11.598000
83526.264000 447355.595000 14.936000
83527.940000 447355.065000 11.132000
83532.512000 447353.866000 1.274000
83535.807000 447356.443000 1.757000
83550.446000 447372.987000 13.959000
83551.073000 447374.971000 17.109000
83553.790000 447373.428000 9.149000
83554.335000 447375.469000 12.686000
83556.795000 447375.221000 7.775000
83557.425000 447377.136000 10.824000
83497.056000 447331.935000 3.006000
83497.947000 447333.247000 4.851000
83499.711000 447333.242000 2.452000
83501.676000 447333.793000 0.874000
83503.160000 447335.292000 2.396000
83504.427000 447338.029000 6.930000
83524.596000 447354.246000 14.198000
83525.296000 447355.234000 15.232000
83526.736000 447355.108000 12.794000
83554.554000 447373.986000 8.620000
83557.396000 447375.476000 7.027000
83498.885000 447333.192000 2.771000
83500.284000 447333.696000 2.030000
83500.832000 447335.465000 5.473000
83501.905000 447335.532000 3.967000
83503.362000 447335.935000 2.979000
83504.541000 447336.764000 3.262000
83505.036000 447338.643000 6.827000
83507.949000 447337.696000 0.333000
83524.793000 447354.037000 12.715000
83525.913000 447354.264000 11.550000
83527.138000 447355.173000 11.737000
83528.089000 447355.644000 11.319000
83549.862000 447374.115000 16.472000
83551.871000 447374.354000 13.609000
83553.842000 447374.705000 10.841000
83557.327000 447375.988000 7.694000
83567.757000 447383.424000 5.136000
83569.807000 447384.968000 4.693000
83497.495000 447332.902000 3.402000
83498.513000 447333.904000 4.311000
83499.934000 447334.220000 3.002000
83500.905000 447335.380000 4.369000
83502.213000 447334.975000 1.570000
83503.189000 447336.137000 2.904000
83504.087000 447338.262000 6.671000
83506.076000 447336.892000 0.558000
83507.788000 447337.760000 0.248000
83525.997000 447356.009000 14.769000
83527.406000 447355.630000 11.565000
83529.000000 447356.172000 10.293000
83532.916000 447355.075000 1.734000
83534.530000 447357.302000 4.191000
83549.711000 447372.522000 12.744000
83550.376000 447374.246000 15.342000
83557.136000 447375.981000 7.433000
83559.074000 447377.307000 6.892000
83569.775000 447385.165000 4.446000
83504.289000 447338.486000 6.043000
83504.787000 447339.665000 8.117000
83506.456000 447339.880000 6.152000
83523.244000 447353.582000 12.741000
83524.494000 447354.713000 13.177000
83531.753000 447355.018000 2.662000
83548.897000 447373.355000 15.121000
83551.650000 447371.812000 7.153000
83558.140000 447376.872000 6.948000
83497.977000 447334.420000 4.556000
83499.411000 447334.836000 3.569000
83500.302000 447336.026000 5.224000
83501.462000 447335.943000 3.270000
83502.263000 447337.350000 5.436000
83504.084000 447337.108000 2.306000
83504.224000 447339.672000 8.102000
83505.773000 447338.962000 4.260000
83507.540000 447339.638000 3.224000
83522.382000 447353.269000 12.612000
83525.281000 447351.849000 4.846000
83551.574000 447375.590000 14.821000
83498.139000 447334.657000 4.144000
83499.861000 447334.465000 1.338000
83500.546000 447335.077000 2.005000
83504.014000 447337.335000 2.273000
83521.592000 447352.776000 12.075000
83523.263000 447354.752000 13.968000
83524.792000 447355.115000 12.460000
83525.588000 447356.692000 14.818000
83532.739000 447356.155000 2.458000
83549.614000 447373.832000 13.780000
83551.515000 447375.005000 13.111000
83554.334000 447376.867000 12.348000
83556.178000 447378.315000 12.185000
83558.193000 447377.601000 7.184000
83567.951000 447384.281000 4.160000
83499.338000 447335.284000 3.319000
83500.198000 447335.804000 3.356000
83501.706000 447336.194000 2.072000
83505.140000 447339.166000 4.286000
83522.314000 447352.654000 10.001000
83523.144000 447354.269000 12.489000
83524.077000 447355.785000 14.500000
83525.344000 447356.835000 14.918000
83527.788000 447356.991000 11.530000
83549.865000 447372.841000 10.695000
83551.930000 447373.072000 7.759000
83553.353000 447376.309000 12.295000
83555.140000 447378.110000 12.900000
83497.935000 447334.601000 3.036000
83499.250000 447335.032000 2.351000
83501.727000 447336.466000 2.125000
83502.591000 447337.772000 3.900000
83509.752000 447340.626000 0.277000
83522.762000 447353.365000 10.417000
83524.310000 447352.829000 6.901000
83526.952000 447357.151000 12.526000
83548.534000 447374.089000 15.147000
83549.284000 447375.028000 15.937000
83552.837000 447375.012000 9.899000
83556.028000 447376.652000 7.955000
83556.216000 447379.209000 13.100000
83492.382000 447331.910000 3.762000
83500.419000 447335.372000 0.768000
83500.626000 447337.623000 5.888000
83503.997000 447339.336000 5.084000
83507.399000 447340.051000 1.901000
83521.764000 447352.663000 9.834000
83523.615000 447352.506000 6.734000
83526.259000 447357.630000 14.156000
83554.896000 447378.223000 12.754000
83559.637000 447378.770000 5.910000
83494.168000 447333.816000 5.034000
83499.963000 447336.476000 3.462000
83501.461000 447337.907000 4.698000
83502.895000 447338.362000 3.913000
83504.421000 447339.761000 4.815000
83521.861000 447354.121000 12.476000
83523.731000 447353.280000 7.638000
83524.359000 447354.246000 8.910000
83549.416000 447375.549000 15.897000
83551.286000 447376.163000 14.088000
83552.093000 447377.112000 14.808000
83554.935000 447375.564000 6.480000
83494.730000 447333.508000 3.054000
83496.450000 447335.292000 5.002000
83498.220000 447336.004000 4.210000
83501.107000 447336.652000 1.732000
83501.762000 447338.298000 4.699000
83504.975000 447341.206000 7.027000
83507.641000 447340.734000 2.082000
83510.269000 447342.014000 1.258000
83522.104000 447354.072000 11.526000
83522.485000 447355.187000 13.396000
83523.420000 447354.745000 11.132000
83524.007000 447356.701000 14.619000
83525.827000 447357.536000 13.724000
83546.820000 447373.692000 15.782000
83551.087000 447372.840000 6.783000
83551.424000 447375.138000 11.264000
83551.770000 447377.513000 15.764000
83555.088000 447376.095000 7.057000
83555.512000 447378.311000 11.236000
83557.463000 447377.823000 6.710000
83568.299000 447385.614000 4.300000
83494.590000 447334.090000 4.044000
83498.045000 447335.444000 2.732000
83499.586000 447336.417000 2.699000
83501.630000 447337.527000 2.600000
83502.481000 447338.743000 4.302000
83503.963000 447339.061000 2.887000
83505.191000 447339.852000 2.963000
83506.326000 447341.523000 5.317000
83524.154000 447352.448000 4.350000
83523.688000 447355.844000 12.619000
83525.004000 447357.460000 14.321000
83526.972000 447357.233000 10.787000
83540.582000 447368.584000 14.516000
83542.325000 447369.892000 14.531000
83554.684000 447375.546000 6.352000
83555.726000 447376.942000 7.432000
83495.577000 447335.186000 4.944000
83497.891000 447335.964000 3.643000
83500.158000 447336.048000 0.625000
83502.094000 447338.577000 3.789000
83505.811000 447342.072000 6.785000
83521.893000 447353.557000 9.766000
83522.472000 447354.624000 11.365000
83541.557000 447369.378000 14.321000
83551.787000 447373.590000 6.413000
83552.583000 447377.532000 13.775000
83554.693000 447378.965000 13.295000
83556.568000 447379.586000 11.337000
83493.703000 447333.592000 3.180000
83495.398000 447335.287000 4.862000
83499.606000 447337.120000 3.472000
83505.461000 447340.230000 2.521000
83507.457000 447341.572000 2.771000
83522.693000 447353.157000 7.144000
83522.611000 447355.080000 11.786000
83523.329000 447355.955000 12.540000
83524.657000 447357.490000 14.057000
83525.937000 447358.363000 14.063000
83533.716000 447364.368000 15.309000
83536.897000 447367.202000 16.627000
83539.034000 447368.787000 16.819000
83540.983000 447369.777000 15.796000
83548.946000 447373.839000 11.466000
83551.964000 447375.399000 9.847000
83552.432000 447377.669000 14.029000
83556.178000 447379.443000 11.477000
83566.061000 447384.213000 4.329000
83492.249000 447334.160000 5.871000
83494.399000 447335.836000 6.918000
83499.858000 447337.250000 2.791000
83500.753000 447338.337000 4.131000
83501.877000 447338.211000 2.195000
83504.396000 447340.350000 3.752000
83506.545000 447340.255000 0.478000
83522.769000 447352.277000 4.391000
83522.243000 447354.866000 11.206000
83523.815000 447356.893000 13.518000
83526.464000 447356.591000 8.685000
83540.378000 447364.288000 4.036000
83541.590000 447369.793000 14.289000
83549.049000 447375.967000 15.352000
83554.865000 447376.581000 6.984000
83566.203000 447384.505000 4.327000
83492.614000 447333.447000 2.981000
83493.320000 447334.215000 3.825000
83494.177000 447334.612000 3.710000
83495.148000 447335.775000 5.104000
83500.428000 447338.409000 4.053000
83501.491000 447339.546000 5.362000
83503.587000 447339.754000 2.779000
83521.837000 447352.287000 5.160000
83522.343000 447353.454000 7.242000
83522.491000 447355.099000 10.756000
83523.174000 447357.038000 14.243000
83525.456000 447357.350000 11.339000
83528.739000 447355.503000 2.102000
83540.655000 447364.826000 4.217000
83541.526000 447371.496000 17.392000
83547.594000 447375.181000 15.673000
83549.496000 447376.677000 15.731000
83551.837000 447376.580000 11.577000
83553.655000 447377.313000 10.062000
83555.138000 447379.332000 12.009000
83565.756000 447384.468000 4.460000
83567.781000 447386.180000 4.560000
83492.305000 447334.987000 6.257000
83493.335000 447335.927000 7.208000
83498.262000 447337.516000 4.245000
83500.368000 447338.599000 3.866000
83504.355000 447341.938000 6.193000
83505.824000 447342.173000 4.679000
83521.368000 447354.152000 9.652000
83521.782000 447355.370000 11.825000
83522.974000 447355.420000 10.118000
83526.192000 447357.074000 8.959000
83536.640000 447367.462000 15.964000
83540.205000 447367.156000 9.559000
83546.590000 447374.170000 14.528000
83548.578000 447375.201000 13.540000
83549.478000 447376.788000 15.417000
83553.280000 447376.429000 8.317000
83554.082000 447378.307000 10.939000
83556.075000 447380.301000 11.830000
83490.114000 447333.589000 5.181000
83491.226000 447334.323000 5.481000
83492.608000 447335.662000 6.795000
83493.700000 447336.349000 6.974000
83500.466000 447338.345000 2.426000
83502.250000 447338.995000 1.475000
83503.545000 447341.327000 5.154000
83505.466000 447340.877000 1.383000
83506.794000 447342.299000 2.824000
83509.605000 447343.163000 0.871000
83511.451000 447345.537000 3.741000
83521.695000 447353.040000 5.930000
83521.456000 447355.143000 11.210000
83523.911000 447356.868000 11.313000
83525.511000 447358.827000 13.354000
83528.509000 447357.254000 5.182000
83532.628000 447364.770000 15.620000
83533.852000 447365.657000 15.848000
83536.401000 447367.522000 15.838000
83539.858000 447367.121000 9.319000
83540.058000 447370.514000 16.589000
83545.552000 447373.850000 14.916000
83550.970000 447373.910000 6.029000
83552.003000 447378.073000 13.455000
83554.146000 447379.109000 11.937000
83566.549000 447385.762000 4.745000
83492.628000 447336.179000 7.222000
83494.314000 447335.021000 2.196000
83494.687000 447336.491000 5.218000
83505.109000 447343.009000 6.167000
83521.180000 447353.600000 7.230000
83521.774000 447354.576000 8.638000
83523.736000 447352.526000 0.959000
83523.002000 447356.754000 11.755000
83524.385000 447358.497000 13.667000
83526.353000 447358.480000 10.492000
83532.780000 447364.779000 14.858000
83534.009000 447365.866000 15.234000
83538.032000 447365.178000 7.371000
83540.081000 447365.298000 4.251000
83539.567000 447369.941000 15.470000
83548.005000 447375.429000 13.724000
83548.894000 447377.215000 16.076000
83550.710000 447377.887000 14.539000
83552.791000 447377.248000 9.602000
83553.862000 447378.789000 11.156000
83566.655000 447386.423000 5.496000
83488.843000 447334.025000 6.506000
83490.140000 447335.401000 8.086000
83491.131000 447335.461000 6.876000
83492.040000 447335.763000 6.375000
83492.769000 447336.317000 6.720000
83493.666000 447336.551000 6.090000
83494.620000 447336.722000 5.207000
83497.151000 447337.880000 4.591000
83502.083000 447340.584000 4.096000
83503.918000 447341.223000 3.125000
83504.415000 447342.114000 4.361000
83509.826000 447346.143000 6.143000
83521.527000 447355.322000 10.153000
83523.510000 447353.209000 1.991000
83522.876000 447356.919000 11.725000
83524.244000 447357.664000 11.431000
83526.128000 447358.425000 10.322000
83528.881000 447358.063000 5.150000
83532.280000 447364.949000 15.426000
83537.995000 447369.765000 17.032000
83549.948000 447375.731000 10.529000
83552.436000 447375.264000 5.341000
83552.567000 447377.103000 9.137000
83553.036000 447379.206000 12.945000
83490.321000 447334.743000 5.731000
83490.924000 447336.354000 8.757000
83493.639000 447336.928000 6.306000
83495.207000 447337.027000 4.567000
83496.601000 447337.230000 3.114000
83501.558000 447340.587000 4.246000
83508.126000 447344.078000 3.205000
83509.843000 447345.752000 4.676000
83518.167000 447350.529000 3.573000
83520.808000 447353.621000 6.733000
83520.981000 447355.065000 9.937000
83522.014000 447354.386000 6.809000
83521.648000 447356.771000 12.705000
83525.874000 447357.495000 7.945000
83529.349000 447358.663000 5.262000
83532.293000 447365.196000 15.454000
83533.604000 447365.912000 14.966000
83538.442000 447366.347000 8.220000
83539.213000 447367.013000 8.533000
83538.487000 447369.801000 15.925000
83548.015000 447376.716000 15.395000
83550.510000 447376.142000 10.098000
83553.146000 447378.148000 10.034000
83567.513000 447386.771000 3.781000
83489.154000 447333.803000 4.274000
83490.147000 447333.910000 3.332000
83491.665000 447336.111000 6.507000
83493.542000 447337.608000 7.416000
83494.887000 447337.213000 4.787000
83496.281000 447337.568000 3.728000
83506.090000 447342.230000 1.148000
83509.672000 447345.906000 4.674000
83511.009000 447346.624000 4.498000
83521.749000 447353.966000 5.601000
83521.518000 447356.220000 11.139000
83522.519000 447356.589000 10.446000
83535.463000 447367.575000 15.267000
83538.145000 447369.664000 15.644000
83547.757000 447376.148000 14.319000
83549.337000 447376.062000 11.220000
83550.254000 447377.891000 13.865000
83551.863000 447378.718000 13.085000
83553.597000 447379.434000 11.642000
83556.575000 447379.542000 6.780000
83566.040000 447386.098000 4.524000
83489.872000 447336.149000 8.219000
83494.073000 447337.867000 6.847000
83501.120000 447341.020000 4.604000
83503.007000 447342.644000 5.730000
83507.017000 447343.115000 1.253000
83509.339000 447346.574000 6.054000
83516.022000 447350.361000 5.064000
83518.116000 447350.741000 2.924000
83521.279000 447353.100000 3.729000
83521.689000 447356.077000 9.928000
83522.355000 447356.800000 10.515000
83523.539000 447357.730000 10.976000
83527.463000 447358.145000 5.901000
83531.228000 447364.531000 14.444000
83537.495000 447370.041000 16.940000
83538.303000 447370.654000 17.085000
83539.989000 447371.127000 15.265000
83550.280000 447378.187000 13.948000
83566.806000 447386.264000 2.955000
83488.873000 447334.447000 4.819000
83490.028000 447334.126000 2.489000
83490.179000 447336.507000 8.149000
83491.255000 447336.331000 6.172000
83492.140000 447337.532000 7.889000
83493.158000 447337.486000 6.455000
83494.138000 447337.520000 5.174000
83495.647000 447337.705000 3.573000
83498.041000 447338.927000 3.213000
83505.337000 447342.780000 2.357000
83507.098000 447344.291000 3.292000
83508.172000 447346.279000 6.442000
83509.374000 447346.808000 5.964000
83510.626000 447347.458000 5.672000
83521.786000 447353.127000 2.388000
83521.457000 447355.416000 8.199000
83522.290000 447354.954000 5.871000
83522.220000 447356.936000 10.608000
83523.678000 447358.316000 11.514000
83525.930000 447359.367000 10.470000
83535.596000 447368.428000 15.843000
83536.231000 447369.310000 16.872000
83540.091000 447366.626000 4.656000
83541.405000 447370.126000 10.180000
83542.723000 447372.846000 14.297000
83545.943000 447374.814000 13.283000
83548.320000 447376.933000 14.004000
